-5.378576278686523438e+00 8.826322555541992188e+00 2.523936033248901367e+00 9.680015444755554199e-01 2.509386539459228516e-01 1.657049055211246014e-03
-1.805464029312133789e+00 1.024271202087402344e+01 -5.421443581581115723e-01 4.968519322574138641e-03 -1.788152009248733521e-02 9.998277425765991211e-01
6.117635250091552734e+00 1.375170707702636719e+01 -2.246770411729812622e-01 -1.002193149179220200e-02 -4.913952434435486794e-04 9.999496340751647949e-01
-1.279642963409423828e+01 -1.471231269836425781e+01 4.801434576511383057e-01 -4.242507517337799072e-01 8.691034317016601562e-01 -2.543039321899414062e-01
-8.512845993041992188e+00 -1.985185623168945312e+01 -1.798950910568237305e+00 -1.759011484682559967e-02 5.122953280806541443e-02 9.985319972038269043e-01
-3.811283349990844727e+00 1.539435386657714844e+01 3.038016796112060547e+00 6.937260031700134277e-01 1.940415948629379272e-01 6.936079859733581543e-01
9.069796562194824219e+00 -5.961936950683593750e+00 4.711853504180908203e+00 -6.444031000137329102e-01 7.529355287551879883e-01 -1.335391849279403687e-01
1.066181659698486328e+01 1.723758888244628906e+01 1.027560308575630188e-01 -8.349126577377319336e-02 9.912097826600074768e-03 9.964591860771179199e-01
1.216361236572265625e+01 1.946398162841796875e+01 5.934439182281494141e+00 2.282549738883972168e-01 -7.509515285491943359e-01 -6.196542978286743164e-01
2.659090280532836914e+00 -5.926323890686035156e+00 -1.062536478042602539e+00 -3.038751892745494843e-02 -2.158407121896743774e-02 9.993051290512084961e-01
-1.148388290405273438e+01 -1.346269035339355469e+01 -4.746233820915222168e-01 -7.014178633689880371e-01 7.117663025856018066e-01 3.743971139192581177e-02
3.907130241394042969e+00 1.592676734924316406e+01 -2.442779242992401123e-01 -4.183840751647949219e-02 8.979706093668937683e-03 9.990840554237365723e-01
9.628633499145507812e+00 -3.867189884185791016e-01 1.483201026916503906e+00 -8.486905694007873535e-01 -5.041382312774658203e-01 1.599029153585433960e-01
1.010760688781738281e+01 8.014202117919921875e+00 1.492488026618957520e+00 -9.893655776977539062e-01 1.040537506341934204e-01 1.016296967864036560e-01
2.437842845916748047e+00 -1.730836296081542969e+01 -1.288040876388549805e+00 -6.341793388128280640e-02 -1.934554427862167358e-01 9.790572524070739746e-01
1.023282814025878906e+01 -4.170330047607421875e+00 2.204203844070434570e+00 5.295424163341522217e-02 -4.847167991101741791e-03 -9.985851645469665527e-01
1.271427345275878906e+01 -1.580378723144531250e+01 7.723460674285888672e+00 -6.213932633399963379e-01 7.483982443809509277e-01 -2.318845391273498535e-01
4.662912338972091675e-03 -3.929717063903808594e+00 -5.232583880424499512e-01 -9.894690513610839844e-01 8.692269027233123779e-02 1.157386302947998047e-01
1.081618881225585938e+01 -1.489231395721435547e+01 8.740628510713577271e-02 -8.271674513816833496e-01 -5.619481205940246582e-01 2.879729727283120155e-03
1.045663166046142578e+01 -1.375482273101806641e+01 1.899655461311340332e+00 -9.827621579170227051e-01 1.807868927717208862e-01 -3.866033256053924561e-02
-2.164602279663085938e+01 -1.643682479858398438e+01 4.842103719711303711e-01 2.642365731298923492e-02 9.521014690399169922e-01 3.046384155750274658e-01
1.240591716766357422e+01 -1.634675216674804688e+01 3.283271074295043945e+00 -9.238921403884887695e-01 -3.787387013435363770e-01 -5.459255352616310120e-02
4.232740879058837891e+00 8.459381103515625000e+00 -4.505488872528076172e-01 -8.832746744155883789e-02 -2.427234798669815063e-01 9.660660028457641602e-01
-9.132938385009765625e+00 8.759737014770507812e+00 6.374313354492187500e+00 -2.900581657886505127e-01 -8.846148103475570679e-02 -9.529117345809936523e-01
-1.417020225524902344e+01 -1.134746265411376953e+01 7.079354763031005859e+00 9.769401550292968750e-01 1.993293166160583496e-01 7.652263343334197998e-02
-2.296227264404296875e+01 -1.647846031188964844e+01 1.941575527191162109e+00 1.796452887356281281e-02 9.918515682220458984e-01 -1.261259615421295166e-01
9.568398475646972656e+00 4.971454143524169922e+00 4.496132373809814453e+00 -9.925821423530578613e-01 1.214845776557922363e-01 4.714452661573886871e-03
9.802790641784667969e+00 4.078604698181152344e+00 2.427690505981445312e+00 -9.602735042572021484e-01 2.458788920193910599e-03 -2.790498435497283936e-01
4.883687973022460938e+00 1.734320449829101562e+01 -1.958347558975219727e-01 7.654864806681871414e-03 -7.439821492880582809e-03 9.999430179595947266e-01
5.402168750762939453e+00 -1.205896949768066406e+01 -1.209520697593688965e+00 -5.825112387537956238e-02 -1.289953291416168213e-01 9.899328351020812988e-01
-6.775407791137695312e+00 -2.733356475830078125e+01 -1.500115394592285156e+00 -2.360360883176326752e-02 3.074911609292030334e-02 9.992483854293823242e-01
-7.888391494750976562e+00 -1.007640075683593750e+01 4.893240928649902344e+00 3.655677735805511475e-01 -2.152862995862960815e-01 -9.055451154708862305e-01
-5.925779819488525391e+00 -1.768275618553161621e+00 4.535278320312500000e+00 5.285274386405944824e-01 6.644107103347778320e-01 -5.284100770950317383e-01
-2.848522901535034180e+00 1.496904277801513672e+01 2.117646217346191406e+00 -4.366295933723449707e-01 2.522634267807006836e-01 -8.635495305061340332e-01
-6.620478630065917969e+00 -2.659086608886718750e+01 -1.514882326126098633e+00 5.506701767444610596e-03 3.437758982181549072e-02 9.993937611579895020e-01
-1.198825740814208984e+01 -1.410608577728271484e+01 2.874172329902648926e-01 -5.466470718383789062e-01 8.323747515678405762e-01 9.126498550176620483e-02
-1.384497928619384766e+01 -2.338556861877441406e+01 -1.676267981529235840e+00 1.923866420984268188e-01 9.480798244476318359e-02 9.767286181449890137e-01
-1.398764705657958984e+01 -1.206030368804931641e+01 6.496361255645751953e+00 -5.003339648246765137e-01 8.657422661781311035e-01 -1.250055618584156036e-02
3.164770126342773438e+00 1.411063575744628906e+01 -2.749829888343811035e-01 -7.219776511192321777e-02 5.267896223813295364e-03 9.973764419555664062e-01
-4.352252483367919922e+00 -3.795839309692382812e+00 3.690723896026611328e+00 8.589593172073364258e-01 -2.729866802692413330e-01 -4.332057237625122070e-01
-4.656169712543487549e-01 1.561713314056396484e+01 -4.185709953308105469e-01 2.403932623565196991e-02 -1.440893113613128662e-02 9.996071457862854004e-01
-7.440259933471679688e+00 1.982837295532226562e+01 -6.027289628982543945e-01 9.938704371452331543e-01 8.592746406793594360e-02 6.955586373805999756e-02
7.909810543060302734e+00 -1.198204803466796875e+01 -7.520876526832580566e-01 -1.979967206716537476e-01 -9.016189724206924438e-02 9.760472178459167480e-01
-1.162918663024902344e+01 -1.369009876251220703e+01 4.504117071628570557e-01 -6.643964052200317383e-01 6.676366925239562988e-01 -3.359147012233734131e-01
-1.822288155555725098e+00 1.676402282714843750e+01 1.482638001441955566e+00 9.900769591331481934e-01 -1.387387812137603760e-01 2.234074845910072327e-02
-1.929007911682128906e+01 -1.701492118835449219e+01 -1.602190375328063965e+00 6.600098311901092529e-02 7.727503776550292969e-02 9.948228001594543457e-01
-6.373906612396240234e+00 -2.494279146194458008e+00 2.174907684326171875e+00 8.351940512657165527e-01 4.575686454772949219e-01 -3.050931394100189209e-01
8.848547935485839844e+00 -8.419293403625488281e+00 3.297098875045776367e+00 -9.630672931671142578e-01 -2.689851820468902588e-01 -1.217788178473711014e-02
1.069584751129150391e+01 -1.467382526397705078e+01 1.090371370315551758e+00 -8.326096534729003906e-01 -5.537544488906860352e-01 1.082393340766429901e-02
1.054869556427001953e+01 1.971954727172851562e+01 4.144855216145515442e-02 -4.590811207890510559e-02 1.428642421960830688e-01 9.886770248413085938e-01
-3.310447692871093750e+00 7.813099384307861328e+00 7.065146565437316895e-01 9.832684397697448730e-01 -1.788668781518936157e-01 3.449367731809616089e-02
-1.713547134399414062e+01 -1.306254196166992188e+01 5.720013618469238281e+00 7.756506204605102539e-01 6.310048103332519531e-01 -1.410666014999151230e-02
-5.580877304077148438e+00 4.135641753673553467e-01 4.458512306213378906e+00 8.822993040084838867e-01 -3.878538012504577637e-01 2.666783928871154785e-01
1.208975028991699219e+01 2.078268432617187500e+01 2.279301285743713379e-01 -9.662273526191711426e-01 2.468659728765487671e-01 7.390484958887100220e-02
-2.654583215713500977e+00 -2.398819923400878906e+01 -1.533842086791992188e+00 -1.904011145234107971e-02 3.451684117317199707e-02 9.992227554321289062e-01
-1.772943735122680664e+00 1.724017906188964844e+01 1.724477052688598633e+00 9.966999292373657227e-01 7.555595040321350098e-02 -2.967448718845844269e-02
1.166649723052978516e+01 1.883643531799316406e+01 4.968608021736145020e-01 -9.929165244102478027e-01 -5.834411084651947021e-02 -1.035023778676986694e-01
-1.038089990615844727e+00 6.862257957458496094e+00 -7.988786101341247559e-01 3.076044917106628418e-01 -3.303574398159980774e-02 9.509406685829162598e-01
-2.355611419677734375e+01 -1.658127784729003906e+01 -1.273883819580078125e+00 -1.446245908737182617e-01 9.867655038833618164e-01 -7.333198189735412598e-02
7.316439628601074219e+00 1.159248924255371094e+01 -2.563041150569915771e-01 -2.328632473945617676e-01 7.893428206443786621e-03 9.724774360656738281e-01
9.347709417343139648e-01 -9.092994689941406250e+00 -1.140550971031188965e+00 -4.050120338797569275e-02 -1.214393414556980133e-02 9.991056919097900391e-01
-5.452909469604492188e+00 -2.265884208679199219e+01 -1.645430803298950195e+00 -1.874787732958793640e-02 2.497843094170093536e-02 9.995121955871582031e-01
9.186180114746093750e+00 1.849729156494140625e+01 -3.651744686067104340e-03 -5.373901128768920898e-02 5.770813301205635071e-02 9.968860745429992676e-01
-5.908609867095947266e+00 4.952738285064697266e+00 7.897246360778808594e+00 9.747307896614074707e-01 -2.232657223939895630e-01 -7.231376133859157562e-03
3.750266075134277344e+00 9.282099604606628418e-01 -4.168403744697570801e-01 -2.031887881457805634e-02 2.049038000404834747e-02 9.995835423469543457e-01
4.500928878784179688e+00 1.594288444519042969e+01 -2.360979020595550537e-01 1.806822605431079865e-03 -3.257315373048186302e-03 9.999930858612060547e-01
-8.410029411315917969e+00 -2.648077964782714844e+01 -1.549075603485107422e+00 -1.937494054436683655e-02 2.277934364974498749e-02 9.995527863502502441e-01
-5.480601310729980469e+00 8.258877754211425781e+00 5.546301841735839844e+00 7.664147019386291504e-01 6.202960610389709473e-01 -1.668571680784225464e-01
-9.204179763793945312e+00 1.421140956878662109e+01 5.092708587646484375e+00 9.582641720771789551e-01 2.858562469482421875e-01 -4.004667978733778000e-03
-7.466719150543212891e+00 -2.171670722961425781e+01 -1.697991132736206055e+00 -1.750246994197368622e-02 3.749559074640274048e-02 9.991434812545776367e-01
1.196275043487548828e+01 1.962285041809082031e+01 5.603895664215087891e+00 5.576509237289428711e-01 -4.131240248680114746e-01 -7.199680209159851074e-01
-7.010722160339355469e+00 -9.828998565673828125e+00 -1.378598332405090332e+00 4.699216689914464951e-03 -2.719888389110565186e-01 9.622889161109924316e-01
-8.438065528869628906e+00 -1.135287952423095703e+01 1.334451675415039062e+00 1.932131946086883545e-01 9.523916840553283691e-01 -2.358363419771194458e-01
-2.169328308105468750e+01 -1.623266983032226562e+01 1.897421479225158691e+00 7.329855561256408691e-01 -5.836631059646606445e-01 3.493844568729400635e-01
-1.950438880920410156e+01 -2.034810256958007812e+01 -1.612834930419921875e+00 2.594910794869065285e-03 7.099707424640655518e-02 9.974731206893920898e-01
9.722494125366210938e+00 3.642805576324462891e+00 4.905676364898681641e+00 -7.678479552268981934e-01 -6.400378346443176270e-01 2.758851647377014160e-02
-4.458558559417724609e+00 2.355318546295166016e+00 2.235470771789550781e+00 8.680438399314880371e-01 4.161761701107025146e-01 -2.707347869873046875e-01
-2.254734039306640625e+00 1.300248908996582031e+01 -4.914460778236389160e-01 9.438290596008300781e-01 -1.980799734592437744e-01 2.644824981689453125e-01
-2.316343688964843750e+01 -1.653224563598632812e+01 -1.269839525222778320e+00 -1.371779143810272217e-01 9.895535111427307129e-01 -4.433973506093025208e-02
-2.440288162231445312e+01 -1.348544883728027344e+01 3.888654947280883789e+00 -1.449334323406219482e-01 9.891153573989868164e-01 2.539809048175811768e-02
-1.472347021102905273e+00 -3.110756397247314453e+00 -1.313592910766601562e+00 -8.266520500183105469e-02 -8.028722368180751801e-03 9.965450167655944824e-01
9.461067199707031250e+00 4.143874168395996094e+00 8.790541291236877441e-01 5.156300663948059082e-01 -7.857127189636230469e-01 -3.417326509952545166e-01
5.675565600395202637e-01 -1.355581951141357422e+01 -1.332103013992309570e+00 -4.093085229396820068e-02 4.791266750544309616e-03 9.991505146026611328e-01
5.390699863433837891e+00 -1.484768867492675781e+00 -9.276839494705200195e-01 -3.683419525623321533e-02 -8.696382865309715271e-03 9.992835521697998047e-01
-2.822410106658935547e+00 9.473410606384277344e+00 5.115986466407775879e-01 -1.955934613943099976e-01 -9.798017144203186035e-01 -4.161528497934341431e-02
2.219161272048950195e+00 -1.307248115539550781e+00 -1.031146407127380371e+00 -3.027420490980148315e-02 -6.708289962261915207e-03 9.995191097259521484e-01
1.086992168426513672e+01 -1.538607597351074219e+01 -7.727675437927246094e-01 -5.155274868011474609e-01 -4.301801621913909912e-01 7.410643696784973145e-01
-2.078359413146972656e+01 -1.670262336730957031e+01 2.033080101013183594e+00 -4.133810400962829590e-01 8.976273536682128906e-01 1.529091447591781616e-01
1.147113227844238281e+01 1.768131828308105469e+01 2.898229122161865234e+00 -9.996396899223327637e-01 8.780755451880395412e-04 -2.682840265333652496e-02
1.390423297882080078e+01 -4.296190738677978516e+00 2.345346212387084961e+00 1.615204103291034698e-02 -1.957531459629535675e-02 -9.996778964996337891e-01
-4.264565467834472656e+00 1.838762611150741577e-01 2.052907705307006836e+00 -6.056378483772277832e-01 -7.598293479532003403e-03 -7.957041263580322266e-01
9.710925102233886719e+00 4.813507080078125000e+00 2.852155864238739014e-01 -9.935211539268493652e-01 1.061337515711784363e-01 -4.063703119754791260e-02
8.701675415039062500e+00 -8.196885108947753906e+00 -5.038893818855285645e-01 -8.499742150306701660e-01 -5.145446658134460449e-01 1.130823940038681030e-01
1.812933921813964844e+00 -1.109301209449768066e+00 -1.049410104751586914e+00 -6.610798835754394531e-02 -3.551310859620571136e-03 9.978061318397521973e-01
-5.032483577728271484e+00 -2.402771759033203125e+01 -1.585933923721313477e+00 -1.838861219584941864e-02 3.502562269568443298e-02 9.992172122001647949e-01
2.737996101379394531e+00 -2.014970397949218750e+01 -1.320941448211669922e+00 -1.979040168225765228e-02 1.971990056335926056e-02 9.996096491813659668e-01
9.629649162292480469e+00 2.120227813720703125e+00 2.777157068252563477e+00 -8.522791266441345215e-01 2.540019154548645020e-01 -4.572781324386596680e-01
-3.959296703338623047e+00 3.955348014831542969e+00 -2.759556770324707031e-01 9.817976951599121094e-01 -1.601520627737045288e-01 1.021009534597396851e-01
2.163304805755615234e+00 -1.017387211322784424e-01 -4.586313068866729736e-01 -3.334744647145271301e-02 -5.695008207112550735e-03 9.994276165962219238e-01
-2.214809656143188477e+00 1.614691543579101562e+01 2.159811496734619141e+00 7.736005187034606934e-01 -2.179754525423049927e-01 5.950033068656921387e-01
1.123400402069091797e+01 2.811002016067504883e+00 1.918300986289978027e+00 -9.947986602783203125e-01 9.838458150625228882e-02 -2.638278715312480927e-02
-3.981472969055175781e+00 3.634747266769409180e+00 1.422960042953491211e+00 9.824023246765136719e-01 -1.471070796251296997e-01 1.150875911116600037e-01
-2.112002372741699219e+01 -1.627849769592285156e+01 3.153148889541625977e-01 1.693550497293472290e-01 9.808076620101928711e-01 9.661890566349029541e-02
-4.288119792938232422e+00 2.374264001846313477e+00 8.884205222129821777e-01 9.925499558448791504e-01 7.874104380607604980e-02 -9.297538548707962036e-02
5.061366558074951172e+00 -7.686571121215820312e+00 -1.018405318260192871e+00 -1.776692084968090057e-02 -2.118596434593200684e-02 9.996176958084106445e-01
-2.073570251464843750e+01 -1.600086975097656250e+01 9.757055640220642090e-01 8.737793564796447754e-02 -3.484183549880981445e-01 9.332575798034667969e-01
5.807716846466064453e+00 -4.879731655120849609e+00 -8.851697444915771484e-01 -2.213894575834274292e-01 1.176269445568323135e-02 9.751145243644714355e-01
1.153557300567626953e+01 1.938218688964843750e+01 3.920822858810424805e+00 -9.940552115440368652e-01 1.647361926734447479e-02 -1.076238900423049927e-01
1.288551568984985352e+00 2.079907035827636719e+01 -4.467115104198455811e-01 -2.901698835194110870e-02 -2.130316756665706635e-02 9.993518590927124023e-01
-7.701961040496826172e+00 -9.047880172729492188e+00 4.480490207672119141e+00 2.102340608835220337e-01 3.022682368755340576e-01 -9.297502636909484863e-01
-4.613066673278808594e+00 -4.240407049655914307e-01 9.678019285202026367e-01 9.827586412429809570e-01 8.195769786834716797e-02 1.657357811927795410e-01
-1.047529315948486328e+01 1.365745925903320312e+01 6.490510940551757812e+00 9.398177862167358398e-01 3.035260736942291260e-01 1.568901389837265015e-01
-4.320623874664306641e+00 -1.365777015686035156e+01 -1.559609532356262207e+00 -4.099677205085754395e-01 1.326278597116470337e-01 9.024058580398559570e-01
2.579692125320434570e+00 -8.634959459304809570e-01 -4.502676129341125488e-01 -3.232999145984649658e-02 -7.152847480028867722e-03 9.994516372680664062e-01
8.414117813110351562e+00 6.578012943267822266e+00 -1.440541744232177734e-01 -1.161297485232353210e-01 7.521097548305988312e-03 9.932055473327636719e-01
1.168564987182617188e+01 1.945553398132324219e+01 1.644209921360015869e-01 -9.854770302772521973e-01 1.538235247135162354e-01 7.192636281251907349e-02
-1.282770156860351562e+01 -1.746613121032714844e+01 -1.901776075363159180e+00 9.036248922348022461e-02 -1.012630984187126160e-01 9.907473921775817871e-01
-1.026045799255371094e+00 -1.595257377624511719e+01 -1.348896741867065430e+00 -1.012315601110458374e-01 -8.136440813541412354e-02 9.915301203727722168e-01
9.785391807556152344e+00 5.080271244049072266e+00 2.069060325622558594e+00 -9.712605476379394531e-01 2.286701500415802002e-01 6.605212390422821045e-02
-2.436145401000976562e+01 -1.363315773010253906e+01 2.145960569381713867e+00 -6.310252845287322998e-02 1.807509213685989380e-01 -9.815025329589843750e-01
9.245467185974121094e+00 -4.985694408416748047e+00 4.875083446502685547e+00 -9.652118086814880371e-01 -1.162322610616683960e-02 2.612106502056121826e-01
7.756768226623535156e+00 -2.358595657348632812e+01 -1.067056059837341309e+00 -3.414807841181755066e-02 2.893649041652679443e-02 9.989978075027465820e-01
4.080707550048828125e+00 1.750956535339355469e+01 -2.091719955205917358e-01 -4.826522246003150940e-02 1.823125407099723816e-02 9.986681342124938965e-01
-7.015011310577392578e+00 -8.926917076110839844e+00 4.164786338806152344e+00 -6.035401225090026855e-01 6.597973704338073730e-01 -4.476681053638458252e-01
5.140313625335693359e+00 1.172404170036315918e+00 -3.571158647537231445e-01 -3.119926340878009796e-02 5.120539572089910507e-03 9.995000958442687988e-01
-9.469197988510131836e-01 5.858684778213500977e-01 -6.857547163963317871e-01 -9.144011139869689941e-02 1.151237078011035919e-02 9.957440495491027832e-01
-5.810816764831542969e+00 -9.293434143066406250e+00 1.439454078674316406e+00 2.282245606184005737e-01 2.996454015374183655e-02 9.731473326683044434e-01
9.182831764221191406e+00 -1.133239936828613281e+01 6.975815892219543457e-01 -9.485320448875427246e-01 -1.872535496950149536e-01 2.553879618644714355e-01
-1.540832042694091797e+01 -1.277610015869140625e+01 6.681883811950683594e+00 -4.361280798912048340e-01 8.997062444686889648e-01 -1.791512034833431244e-02
3.077277421951293945e+00 -5.662962913513183594e+00 -1.044996500015258789e+00 -2.535047568380832672e-02 -2.317033149302005768e-02 9.994100928306579590e-01
-6.505796909332275391e+00 7.686670303344726562e+00 2.765034437179565430e+00 -1.921470612287521362e-01 -9.487290382385253906e-01 2.509835660457611084e-01
9.425713539123535156e+00 1.833753466606140137e+00 3.527961730957031250e+00 -9.949952363967895508e-01 9.226474165916442871e-02 -3.836311399936676025e-02
1.250117683410644531e+01 1.467352390289306641e+01 1.096161842346191406e+00 -9.961856603622436523e-01 8.599239587783813477e-02 -1.481280662119388580e-02
-1.523388504981994629e+00 -4.351382255554199219e+00 -4.418275505304336548e-02 5.002819895744323730e-01 7.176504731178283691e-01 4.844540655612945557e-01
-2.034871673583984375e+01 -1.700539779663085938e+01 2.040279865264892578e+00 8.637442588806152344e-01 4.552954733371734619e-01 -2.159904837608337402e-01
1.246254444122314453e+01 1.505426692962646484e+01 1.702156901359558105e+00 -9.940986633300781250e-01 -1.063850894570350647e-01 -2.121509984135627747e-02
1.059156799316406250e+01 9.153021812438964844e+00 2.490689039230346680e+00 1.172926723957061768e-01 1.644834876060485840e-01 -9.793812632560729980e-01
-4.834915161132812500e+00 -2.578173828125000000e+01 -1.519329071044921875e+00 -2.826299890875816345e-02 3.315657749772071838e-02 9.990504980087280273e-01
3.148635387420654297e+00 -1.889076995849609375e+01 -1.330174446105957031e+00 -1.592310145497322083e-02 1.266438420861959457e-02 9.997929930686950684e-01
1.068262577056884766e+01 1.262723541259765625e+01 4.511072635650634766e+00 -9.929217100143432617e-01 1.177810281515121460e-01 1.530099939554929733e-02
1.146303939819335938e+01 1.465054798126220703e+01 2.679841518402099609e+00 -9.888786822557449341e-02 -3.554402291774749756e-01 -9.294533133506774902e-01
1.071989727020263672e+01 -1.472024631500244141e+01 3.095032691955566406e+00 -8.306515812873840332e-01 -5.567778944969177246e-01 4.042004700750112534e-03
3.881569623947143555e+00 -1.827643775939941406e+01 -1.321591496467590332e+00 -9.206556528806686401e-02 -6.138736754655838013e-02 9.938589334487915039e-01
1.105496883392333984e+01 1.348276233673095703e+01 5.090154170989990234e+00 -9.985415339469909668e-01 5.380982160568237305e-02 4.400551319122314453e-03
-1.640303850173950195e+00 -1.512051200866699219e+01 -1.377243280410766602e+00 -2.621659822762012482e-02 1.402753870934247971e-02 9.995578527450561523e-01
-6.861566066741943359e+00 -8.469155311584472656e+00 8.865300416946411133e-01 8.361850976943969727e-01 -3.685663342475891113e-01 4.061444997787475586e-01
9.294502258300781250e+00 -2.627259969711303711e+00 -2.724470198154449463e-01 -9.308786392211914062e-01 2.533707320690155029e-01 2.631886303424835205e-01
-1.621608734130859375e+01 -1.317152595520019531e+01 5.103195190429687500e+00 -4.256742596626281738e-01 9.048369526863098145e-01 -8.456664159893989563e-03
1.774834513664245605e+00 -1.128201198577880859e+01 -1.150013089179992676e+00 -1.500697284936904907e-01 -2.228779494762420654e-01 9.632260799407958984e-01
-5.252514362335205078e+00 7.577383995056152344e+00 3.935503482818603516e+00 9.866528511047363281e-01 -1.624888777732849121e-01 -1.065622922033071518e-02
-5.554328918457031250e+00 -3.326096534729003906e+00 2.947649478912353516e+00 4.420627653598785400e-01 8.686428070068359375e-01 -2.236965447664260864e-01
9.031542778015136719e+00 -6.173484325408935547e+00 2.306111574172973633e+00 -8.863281607627868652e-01 4.150035381317138672e-01 -2.054129093885421753e-01
6.397067070007324219e+00 -1.838108658790588379e+00 -4.682638049125671387e-01 -9.188649058341979980e-01 1.532539278268814087e-01 3.635939657688140869e-01
-1.004235839843750000e+01 1.271702671051025391e+01 6.319994926452636719e+00 8.454984426498413086e-01 3.118441700935363770e-01 4.334577918052673340e-01
3.376374721527099609e+00 -2.276180648803710938e+01 -1.223602294921875000e+00 -3.159930557012557983e-02 3.017413243651390076e-02 9.990450739860534668e-01
1.163668346405029297e+01 1.965577316284179688e+01 4.332990169525146484e+00 -9.630087018013000488e-01 2.233116328716278076e-01 1.508183777332305908e-01
5.986346244812011719e+00 1.803129196166992188e+01 -2.085605412721633911e-01 -2.849718928337097168e-02 4.670584201812744141e-02 9.985021352767944336e-01
3.859785199165344238e-01 1.512609481811523438e+01 -4.834074974060058594e-01 7.712364941835403442e-02 1.205785479396581650e-02 9.969485998153686523e-01
-3.376798629760742188e+00 1.499961757659912109e+01 3.687798976898193359e+00 6.963088512420654297e-01 -6.467745900154113770e-01 3.111858665943145752e-01
-4.649028301239013672e+00 -2.301101303100585938e+01 -1.616770982742309570e+00 -3.169657289981842041e-02 4.015303775668144226e-02 9.986906647682189941e-01
8.902070999145507812e+00 1.247580432891845703e+01 1.548990607261657715e+00 -9.271437525749206543e-01 8.977407962083816528e-02 3.637925982475280762e-01
6.935932159423828125e+00 9.549106597900390625e+00 -2.736193835735321045e-01 -3.537698090076446533e-01 -7.020718418061733246e-03 9.353061914443969727e-01
-4.118672370910644531e+00 1.600866317749023438e+01 3.656888723373413086e+00 -2.533975243568420410e-01 6.752150654792785645e-01 -6.927295923233032227e-01
1.044630432128906250e+01 -1.266586112976074219e+01 5.463279724121093750e+00 4.952143505215644836e-02 1.665315777063369751e-01 -9.847917556762695312e-01
9.102396011352539062e+00 -1.348526716232299805e+00 4.369630336761474609e+00 -9.218744635581970215e-01 -3.387124836444854736e-01 1.882056742906570435e-01
-7.438783645629882812e+00 -2.387225914001464844e+01 -1.648805141448974609e+00 4.122496768832206726e-02 6.317432969808578491e-02 9.971507191658020020e-01
-9.413611412048339844e+00 -1.220906257629394531e+01 2.988127708435058594e+00 -6.210864782333374023e-01 -3.469236791133880615e-01 -7.027770280838012695e-01
-1.761807441711425781e+01 -1.585976886749267578e+01 1.885054469108581543e+00 3.306062519550323486e-02 -4.355027675628662109e-01 8.995800614356994629e-01
-3.138076066970825195e+00 -5.616412162780761719e+00 -1.345590829849243164e+00 2.874945700168609619e-01 -9.949366748332977295e-02 9.526005983352661133e-01
8.451326370239257812e+00 -7.397637367248535156e+00 4.476247787475585938e+00 -9.886738657951354980e-01 -1.265241801738739014e-01 -8.071964234113693237e-02
8.669711112976074219e+00 -8.045558929443359375e+00 4.480561733245849609e+00 -7.780648469924926758e-01 -6.281552910804748535e-01 6.007377989590167999e-03
-6.904198646545410156e+00 -2.072682380676269531e+00 2.210629463195800781e+00 1.242494881153106689e-01 4.530718922615051270e-01 -8.827728629112243652e-01
9.317434310913085938e+00 -1.180350589752197266e+01 -5.128293037414550781e-01 -6.262937784194946289e-01 -3.880735635757446289e-01 6.761323809623718262e-01
5.504629135131835938e+00 -1.268681907653808594e+01 -1.209078788757324219e+00 -3.982208669185638428e-02 -5.861931480467319489e-03 9.991896152496337891e-01
9.661597251892089844e+00 -1.132810115814208984e+00 5.967261314392089844e+00 7.378488779067993164e-02 2.870487868785858154e-01 -9.550700187683105469e-01
8.933470726013183594e+00 3.916163682937622070e+00 6.923379898071289062e-01 -3.641927540302276611e-01 -9.282097220420837402e-01 -7.609439641237258911e-02
6.152389526367187500e+00 -1.043661403656005859e+01 -9.614514708518981934e-01 -2.205504924058914185e-01 -1.226867064833641052e-01 9.676287770271301270e-01
-1.675282478332519531e+01 -1.509892463684082031e+01 2.439321279525756836e+00 -1.836330443620681763e-01 8.677790760993957520e-01 4.617774188518524170e-01
-8.775527954101562500e+00 -1.202547073364257812e+01 3.649431943893432617e+00 9.215942025184631348e-01 3.018122315406799316e-01 -2.440769076347351074e-01
-1.121827888488769531e+01 -2.452337646484375000e+01 -1.622964978218078613e+00 -5.137773230671882629e-03 4.770435020327568054e-02 9.988482594490051270e-01
1.333033943176269531e+01 -1.716720008850097656e+01 2.517550945281982422e+00 4.742961823940277100e-01 8.797748684883117676e-01 3.223851695656776428e-02
1.127797698974609375e+01 2.839650154113769531e+00 2.639476060867309570e+00 -9.702844619750976562e-01 -2.312992215156555176e-01 7.105408608913421631e-02
1.034111404418945312e+01 9.471336364746093750e+00 1.722469091415405273e+00 -9.856068491935729980e-01 1.560082286596298218e-01 -6.511960178613662720e-02
-5.160071372985839844e+00 -3.430281400680541992e+00 2.994499206542968750e-01 9.818687438964843750e-01 -1.599843800067901611e-01 -1.016797870397567749e-01
9.573510169982910156e+00 3.440833091735839844e-02 5.276995182037353516e+00 6.218217015266418457e-01 -7.793580889701843262e-01 -7.706354558467864990e-02
-5.785200119018554688e+00 4.970466136932373047e+00 4.471032619476318359e+00 9.864228367805480957e-01 -1.640892177820205688e-01 6.686994340270757675e-03
-8.641384124755859375e+00 -2.289653205871582031e+01 -1.652779936790466309e+00 -4.445335827767848969e-03 2.143277227878570557e-02 9.997603893280029297e-01
-5.254223346710205078e+00 8.142020225524902344e+00 4.076207160949707031e+00 9.797497391700744629e-01 1.998967826366424561e-01 -1.147826202213764191e-02
8.453068733215332031e+00 1.719870948791503906e+01 -6.918320059776306152e-02 -3.430107235908508301e-01 8.904632925987243652e-02 9.351012706756591797e-01
3.598993301391601562e+00 -1.509916687011718750e+01 -1.241315722465515137e+00 -2.368331328034400940e-02 3.762492910027503967e-03 9.997124075889587402e-01
2.620928525924682617e+00 2.148980522155761719e+01 -3.694727420806884766e-01 -4.508225247263908386e-02 1.068912148475646973e-01 9.932481646537780762e-01
1.155527496337890625e+01 1.799204444885253906e+01 7.197979092597961426e-01 -9.817431569099426270e-01 1.234262883663177490e-01 -1.447286456823348999e-01
-1.680034637451171875e+00 -2.039726448059082031e+01 -1.396622657775878906e+00 -5.828482564538717270e-03 -1.207935623824596405e-02 9.999100565910339355e-01
1.124384689331054688e+01 2.077285528182983398e+00 3.578253090381622314e-01 -9.933200478553771973e-01 9.994798898696899414e-02 -5.766889080405235291e-02
4.364605844020843506e-01 -1.593128108978271484e+01 -1.312610507011413574e+00 -1.729865372180938721e-02 1.023819763213396072e-02 9.997979402542114258e-01
1.023805522918701172e+01 9.421442031860351562e+00 1.682378351688385010e-01 -9.453969597816467285e-01 -1.357225030660629272e-01 2.963173985481262207e-01
-5.180411815643310547e+00 -6.002349376678466797e+00 -1.316774487495422363e+00 9.357184171676635742e-02 2.113920748233795166e-01 9.729119539260864258e-01
-1.398628330230712891e+01 -1.751223945617675781e+01 -1.806030750274658203e+00 4.197939857840538025e-02 -1.902252882719039917e-01 9.808425307273864746e-01
-3.661100387573242188e+00 7.688128352165222168e-01 6.216599419713020325e-02 9.718544483184814453e-01 1.777179539203643799e-01 1.546454429626464844e-01
-1.192942142486572266e+01 -1.833448600769042969e+01 -5.615283846855163574e-01 -1.693219691514968872e-01 -1.049908548593521118e-01 9.799525737762451172e-01
3.620654821395874023e+00 8.496304512023925781e+00 -4.690507948398590088e-01 -9.403735399246215820e-02 -7.041233777999877930e-02 9.930755496025085449e-01
-3.495045661926269531e+00 8.181074857711791992e-01 -6.685947775840759277e-01 5.009574294090270996e-01 -8.654040098190307617e-01 1.084223762154579163e-02
-3.576115608215332031e+00 6.156909465789794922e+00 1.692633152008056641e+00 9.802568554878234863e-01 -5.710952728986740112e-02 1.893012374639511108e-01
-1.790660738945007324e+00 2.078250312805175781e+01 -4.362485706806182861e-01 1.451477059163153172e-03 3.520731627941131592e-02 9.993789792060852051e-01
-2.783423423767089844e+00 1.181466102600097656e+01 1.750319957733154297e+00 7.488293051719665527e-01 -1.504563987255096436e-01 6.454591751098632812e-01
-4.880053400993347168e-01 -1.914597511291503906e+01 -1.396095871925354004e+00 6.888936273753643036e-03 2.400906756520271301e-02 9.996880292892456055e-01
-1.027614212036132812e+01 -1.256462574005126953e+01 1.091777205467224121e+00 9.088864326477050781e-01 3.471444845199584961e-01 2.311192601919174194e-01
-1.541140937805175781e+01 -2.459198379516601562e+01 -1.490798473358154297e+00 9.009317494928836823e-03 4.393470287322998047e-02 9.989937543869018555e-01
9.131420135498046875e+00 -4.461952209472656250e+00 3.753100156784057617e+00 -9.967558383941650391e-01 -6.759962439537048340e-02 -4.368153214454650879e-02
1.051370048522949219e+01 1.144293498992919922e+01 5.090858936309814453e+00 -9.727798700332641602e-01 2.295274585485458374e-01 -3.188169747591018677e-02
-1.344328975677490234e+01 -2.198898315429687500e+01 -1.714508175849914551e+00 -5.722910165786743164e-03 3.420980274677276611e-02 9.993982911109924316e-01
-1.907324314117431641e+00 1.435603857040405273e+00 -7.616544365882873535e-01 1.872164011001586914e-01 -7.783585041761398315e-02 9.792301058769226074e-01
3.215702533721923828e+00 -1.650511550903320312e+01 -1.229489088058471680e+00 -2.179402485489845276e-02 4.254438914358615875e-03 9.997534155845642090e-01
3.864132881164550781e+00 6.498280048370361328e+00 -5.071727037429809570e-01 -7.956347544677555561e-04 -4.261285532265901566e-03 9.999905824661254883e-01
1.150905036926269531e+01 1.564134693145751953e+01 5.076584815979003906e-01 -9.337213635444641113e-01 -3.571566045284271240e-01 2.456681430339813232e-02
-4.177426338195800781e+00 3.624913930892944336e+00 1.845673561096191406e+00 8.220285773277282715e-01 -1.571933180093765259e-01 5.473200678825378418e-01
1.030138683319091797e+01 9.357320785522460938e+00 1.678395986557006836e+00 -9.848344922065734863e-01 1.584800779819488525e-01 -7.060538977384567261e-02
-2.052097558975219727e+00 1.520346069335937500e+01 2.765401005744934082e-01 9.858780503273010254e-01 -1.671391129493713379e-01 1.044237799942493439e-02
9.384423255920410156e+00 1.122327518463134766e+01 3.164923563599586487e-02 -8.499753661453723907e-03 4.035365283489227295e-01 9.149240255355834961e-01
-4.583650588989257812e+00 -1.725543856620788574e+00 3.925643682479858398e+00 -5.944580435752868652e-01 6.120386719703674316e-01 -5.215632915496826172e-01
-5.384857654571533203e+00 8.566823959350585938e+00 7.475828170776367188e+00 9.747152328491210938e-01 2.232961505651473999e-01 8.311031386256217957e-03
1.287020111083984375e+01 1.826258087158203125e+01 2.688074588775634766e+00 8.161903917789459229e-02 -2.320554293692111969e-02 -9.963934421539306641e-01
2.637317657470703125e+00 -4.532752990722656250e+00 -1.043426752090454102e+00 -3.929761424660682678e-02 -1.584336161613464355e-02 9.991019368171691895e-01
9.159101486206054688e+00 1.082913112640380859e+01 6.504112482070922852e-01 2.202381640672683716e-01 -9.582289457321166992e-01 -1.824623048305511475e-01
-5.810257911682128906e+00 -2.674347162246704102e-01 3.911654949188232422e+00 -5.677417516708374023e-01 8.115934729576110840e-01 1.377872675657272339e-01
5.975613117218017578e+00 1.096330547332763672e+01 -3.225872516632080078e-01 -1.655049249529838562e-02 -1.836663298308849335e-02 9.996943473815917969e-01
-7.377048492431640625e+00 -2.626479339599609375e+01 -1.535313725471496582e+00 -1.720035634934902191e-02 3.247595950961112976e-02 9.993245005607604980e-01
-6.089042425155639648e-01 -5.265246391296386719e+00 1.843247003853321075e-02 8.122272491455078125e-01 -3.352216482162475586e-01 4.774026572704315186e-01
-1.476746439933776855e+00 -2.077942848205566406e+01 -1.392102956771850586e+00 -2.354978583753108978e-02 2.725643478333950043e-02 9.993510246276855469e-01
-1.463874721527099609e+01 -1.245806217193603516e+01 2.318473577499389648e+00 -4.347687363624572754e-01 9.005400538444519043e-01 -1.932345679961144924e-03
-4.151017665863037109e+00 -4.255332469940185547e+00 3.524576663970947266e+00 5.199945569038391113e-01 1.856621354818344116e-01 -8.337477445602416992e-01
-6.204761505126953125e+00 -7.039153099060058594e+00 2.273298740386962891e+00 9.092293977737426758e-01 5.720301065593957901e-03 4.162560999393463135e-01
-1.797879791259765625e+01 -1.604947662353515625e+01 7.158238291740417480e-01 1.414923369884490967e-01 8.695688843727111816e-01 -4.731065630912780762e-01
-1.849276542663574219e+01 -1.626453208923339844e+01 2.313467264175415039e+00 5.638362765312194824e-01 6.786826848983764648e-01 4.706149995326995850e-01
-8.294631958007812500e+00 4.333401203155517578e+00 5.345989227294921875e+00 -3.582467734813690186e-01 -9.336258172988891602e-01 -1.443366869352757931e-03
-4.727270603179931641e+00 2.771445274353027344e+00 2.287052869796752930e+00 3.054659068584442139e-01 7.752431929111480713e-02 -9.490419030189514160e-01
-1.972254562377929688e+01 -1.620815467834472656e+01 7.185277342796325684e-01 -1.973819434642791748e-01 7.338086962699890137e-01 -6.500501632690429688e-01
2.757762432098388672e+00 -1.087598991394042969e+01 -1.112423658370971680e+00 -2.794721908867359161e-02 4.519513808190822601e-03 9.995991587638854980e-01
-9.541705995798110962e-02 -3.968870401382446289e+00 -7.068774700164794922e-01 9.853636622428894043e-01 1.465317159891128540e-01 -8.710290491580963135e-02
-8.091525077819824219e+00 -1.106542110443115234e+01 1.586464643478393555e+00 7.261300086975097656e-01 2.811610996723175049e-01 6.274421811103820801e-01
1.149449920654296875e+01 1.825300788879394531e+01 3.699987173080444336e+00 -9.934368729591369629e-01 1.050635501742362976e-01 -4.521988332271575928e-02
1.143812179565429688e+01 7.768374443054199219e+00 6.106123447418212891e+00 2.320693880319595337e-01 1.055169254541397095e-01 -9.669591188430786133e-01
-5.688638687133789062e+00 4.230460643768310547e+00 4.957785129547119141e+00 2.717984020709991455e-01 6.375663876533508301e-01 -7.208569049835205078e-01
5.318137645721435547e+00 1.515026283264160156e+01 -2.534630298614501953e-01 -2.681684121489524841e-02 -6.820372072979807854e-04 9.996401071548461914e-01
7.551006793975830078e+00 1.058858203887939453e+01 -1.359223872423171997e-01 -1.452803760766983032e-01 1.667959429323673248e-02 9.892499446868896484e-01
4.362038612365722656e+00 2.531795740127563477e+00 -4.047242403030395508e-01 -4.276901017874479294e-03 2.814168855547904968e-02 9.995948076248168945e-01
-6.106081008911132812e+00 -4.507234573364257812e+00 1.360131740570068359e+00 1.472129076719284058e-01 8.395153284072875977e-01 -5.230127573013305664e-01
9.859372138977050781e+00 8.402855873107910156e+00 1.267594993114471436e-01 -7.442778944969177246e-01 7.936799526214599609e-02 6.631373167037963867e-01
3.087949991226196289e+00 -6.520583629608154297e+00 -1.042986392974853516e+00 -2.525684610009193420e-02 -2.602903731167316437e-02 9.993420839309692383e-01
-2.516141700744628906e+01 -1.352561855316162109e+01 3.519195795059204102e+00 -3.468455746769905090e-02 4.075670838356018066e-01 -9.125163555145263672e-01
9.375966072082519531e+00 -3.946032047271728516e+00 2.982090115547180176e-01 -9.757571816444396973e-01 8.686093240976333618e-02 -2.008809447288513184e-01
5.855591297149658203e+00 1.757619285583496094e+01 -2.050901651382446289e-01 1.139534264802932739e-02 -1.041440200060606003e-02 9.998808503150939941e-01
-1.383759498596191406e+01 -1.138906478881835938e+01 5.099801540374755859e+00 -3.087664544582366943e-01 9.252571463584899902e-01 -2.203690260648727417e-01
5.811539173126220703e+00 -1.434430003166198730e+00 -9.132578969001770020e-01 -2.182422727346420288e-01 8.129171095788478851e-03 9.758607745170593262e-01
9.446858406066894531e+00 9.852252602577209473e-01 7.278445363044738770e-01 -9.301678538322448730e-01 3.604892790317535400e-01 -6.953564286231994629e-02
9.768445968627929688e+00 5.616373538970947266e+00 2.472398996353149414e+00 -9.997459053993225098e-01 1.683843322098255157e-02 -1.498640887439250946e-02
-3.547497093677520752e-01 -7.547016620635986328e+00 -1.220525383949279785e+00 -7.165721058845520020e-02 6.566919386386871338e-03 9.974076747894287109e-01
1.477402114868164062e+01 -1.827536010742187500e+01 4.843828678131103516e+00 -7.866583466529846191e-01 -6.162683963775634766e-01 3.717417269945144653e-02
-2.168057918548583984e+00 -1.598822879791259766e+01 -1.495713710784912109e+00 -1.109766364097595215e-01 -1.140018254518508911e-01 9.872627854347229004e-01
-2.500190496444702148e+00 -2.019038963317871094e+01 -1.424041271209716797e+00 -3.566501662135124207e-02 2.468713000416755676e-02 9.990588426589965820e-01
9.260163307189941406e+00 -4.973762035369873047e+00 6.970573663711547852e-01 -9.751269817352294922e-01 9.357114136219024658e-02 2.009272575378417969e-01
-2.049468803405761719e+01 -1.644809722900390625e+01 2.131676435470581055e+00 5.714066326618194580e-02 -5.777835845947265625e-01 -8.141874074935913086e-01
-6.853351593017578125e+00 -2.227577590942382812e+01 -1.670303463935852051e+00 -1.787724159657955170e-02 2.460738830268383026e-02 9.995373487472534180e-01
-2.122177600860595703e+00 2.320447158813476562e+01 1.484486103057861328e+00 7.074241042137145996e-01 -7.066587209701538086e-01 1.358711160719394684e-02
-4.842572689056396484e+00 -8.597414970397949219e+00 -1.397371172904968262e+00 1.848666742444038391e-02 -6.328099966049194336e-02 9.978244900703430176e-01
6.379875183105468750e+00 1.075959110260009766e+01 -3.198512792587280273e-01 -2.270505577325820923e-02 -1.026675570756196976e-02 9.996894598007202148e-01
-1.822239685058593750e+01 -2.346184539794921875e+01 -1.489018321037292480e+00 1.297618728131055832e-02 2.969925291836261749e-03 9.999113678932189941e-01
6.765070557594299316e-01 1.849336051940917969e+01 -4.657288193702697754e-01 -3.225662931799888611e-02 9.721587412059307098e-03 9.994323253631591797e-01
2.205106258392333984e+00 6.516140937805175781e+00 -5.460842847824096680e-01 -7.316286861896514893e-02 -5.288183223456144333e-03 9.973059892654418945e-01
-1.632181406021118164e+00 2.347681617736816406e+01 -1.095155119895935059e+00 5.720547437667846680e-01 -8.175746798515319824e-01 6.576494127511978149e-02
-7.469563961029052734e+00 -7.886973857879638672e+00 5.182795524597167969e+00 6.614203453063964844e-01 4.747056961059570312e-01 -5.806699991226196289e-01
1.232644176483154297e+01 -1.628827667236328125e+01 -3.260922133922576904e-01 -8.183976411819458008e-01 -5.746088027954101562e-01 7.067246362566947937e-03
-4.367428779602050781e+00 -1.380506634712219238e+00 -1.262641072273254395e+00 3.239441215991973877e-01 -1.738374531269073486e-01 9.299681186676025391e-01
-4.252406597137451172e+00 -2.904196262359619141e+00 4.008680820465087891e+00 9.290648102760314941e-01 -4.716158285737037659e-02 3.668982982635498047e-01
-8.835111618041992188e+00 -2.330210876464843750e+01 -1.651901006698608398e+00 -1.562801375985145569e-02 1.424787566065788269e-02 9.997763633728027344e-01
7.054019927978515625e+00 6.934979915618896484e+00 -2.808174490928649902e-01 -1.315755397081375122e-01 -1.210909802466630936e-02 9.912321567535400391e-01
-1.403622055053710938e+01 -1.210500144958496094e+01 5.909286975860595703e+00 -5.167667865753173828e-01 8.559983372688293457e-01 1.479476038366556168e-02
-5.997301101684570312e+00 -3.803993225097656250e+00 1.851615548133850098e+00 7.400588989257812500e-01 3.683395683765411377e-01 5.627066493034362793e-01
9.001976013183593750e+00 -8.605391502380371094e+00 1.578451275825500488e+00 -8.990269303321838379e-01 -4.068310558795928955e-01 -1.619849205017089844e-01
6.699430465698242188e+00 -6.716220378875732422e+00 -7.703803479671478271e-02 -8.758541941642761230e-01 -1.624300628900527954e-01 -4.544182419776916504e-01
-4.498980522155761719e+00 1.827322483062744141e+00 1.751391768455505371e+00 8.584315180778503418e-01 1.328330580145120621e-02 5.127561688423156738e-01
-1.086725425720214844e+01 -1.474438762664794922e+01 -1.920922756195068359e+00 1.292446106672286987e-01 -1.765695363283157349e-01 9.757658839225769043e-01
-1.264112663269042969e+01 -2.336399269104003906e+01 -1.668939828872680664e+00 -6.265104748308658600e-03 7.436169777065515518e-03 9.999527335166931152e-01
-5.878684520721435547e+00 -8.850111961364746094e+00 1.441601157188415527e+00 8.143895268440246582e-01 -7.028646022081375122e-02 -5.760464668273925781e-01
1.170006871223449707e+00 -7.551384925842285156e+00 -1.124234557151794434e+00 -4.780285060405731201e-02 -2.227998105809092522e-03 9.988542795181274414e-01
-4.182133197784423828e+00 -2.108897447586059570e+00 3.339282751083374023e+00 4.577817022800445557e-02 8.370369076728820801e-01 5.452279448509216309e-01
-4.619244098663330078e+00 -2.341450691223144531e+01 -1.596772432327270508e+00 -2.145837247371673584e-02 3.788052499294281006e-02 9.990518689155578613e-01
1.653669714927673340e+00 -4.916882038116455078e+00 -1.077310204505920410e+00 -3.624038398265838623e-02 -8.696356788277626038e-03 9.993052482604980469e-01
-6.026507854461669922e+00 1.098695087432861328e+01 5.310030460357666016e+00 9.677928090095520020e-01 2.509588599205017090e-01 1.991909183561801910e-02
9.120954513549804688e+00 -1.118527698516845703e+01 2.992338836193084717e-01 -9.529352784156799316e-01 -2.814587950706481934e-01 -1.126734614372253418e-01
9.359507560729980469e+00 1.055575656890869141e+01 9.008219838142395020e-01 -8.994073420763015747e-02 -8.943521976470947266e-01 -4.382291734218597412e-01
-4.587857723236083984e+00 -2.427513360977172852e+00 2.156507730484008789e+00 2.274152338504791260e-01 8.617687225341796875e-02 -9.699772596359252930e-01
-1.203824424743652344e+01 -2.375890541076660156e+01 -1.662143349647521973e+00 -1.742979697883129120e-02 1.817818172276020050e-02 9.996828436851501465e-01
9.892370223999023438e+00 1.845137977600097656e+01 4.797926917672157288e-02 -8.378157019615173340e-02 5.881585180759429932e-02 9.947468638420104980e-01
5.225474834442138672e+00 -4.085625171661376953e+00 -9.520869851112365723e-01 -3.105727024376392365e-02 -9.285792708396911621e-03 9.994744658470153809e-01
6.857604980468750000e+00 5.570206165313720703e+00 -2.916674017906188965e-01 -1.323591172695159912e-01 8.796744979918003082e-03 9.911627769470214844e-01
9.420631408691406250e+00 -3.767631530761718750e+00 2.063475847244262695e+00 -9.044907093048095703e-01 1.380563825368881226e-01 -4.035305976867675781e-01
-5.539715766906738281e+00 -3.231553077697753906e+00 2.758237600326538086e+00 1.710343807935714722e-01 7.910447120666503906e-01 -5.873631834983825684e-01
9.765541076660156250e+00 6.276186466217041016e+00 3.806256532669067383e+00 -9.968305230140686035e-01 5.262039974331855774e-02 -5.966531857848167419e-02
-1.428769707679748535e+00 2.197131156921386719e+01 -4.526348412036895752e-01 -4.780430812388658524e-03 7.615197915583848953e-03 9.999595880508422852e-01
7.580041885375976562e+00 -5.220808506011962891e+00 -6.517519354820251465e-01 -1.063912585377693176e-01 -1.033245306462049484e-02 9.942706823348999023e-01
-4.099582195281982422e+00 1.546984076499938965e+00 -3.033522069454193115e-01 2.595587968826293945e-01 -9.564418196678161621e-01 -1.335975527763366699e-01
5.892427444458007812e+00 -6.818195819854736328e+00 -8.556222915649414062e-01 -2.209489345550537109e-01 -3.578072646632790565e-03 9.752787947654724121e-01
9.751594543457031250e+00 4.246106147766113281e+00 1.896111249923706055e+00 -9.389531612396240234e-01 -3.440447449684143066e-01 -4.558603977784514427e-04
4.525260448455810547e+00 2.120938539505004883e+00 -3.883527517318725586e-01 -4.103990644216537476e-02 1.346400752663612366e-02 9.990667700767517090e-01
6.683301925659179688e+00 -7.024760246276855469e+00 2.870224416255950928e-01 -9.135478138923645020e-01 -3.988215923309326172e-01 7.982320338487625122e-02
3.812210083007812500e+00 5.110659003257751465e-01 -3.988817334175109863e-01 -2.335779368877410889e-02 -1.088787801563739777e-02 9.996678829193115234e-01
7.079832077026367188e+00 3.945454597473144531e+00 -2.504359781742095947e-01 -1.009051352739334106e-01 1.167730614542961121e-02 9.948275089263916016e-01
-1.691400527954101562e+01 -1.795059585571289062e+01 -1.733714461326599121e+00 7.934518158435821533e-03 1.300625503063201904e-03 9.999676942825317383e-01
1.028115558624267578e+01 1.743394088745117188e+01 6.654918938875198364e-02 -1.031427979469299316e-01 -6.141467764973640442e-02 9.927687644958496094e-01
-1.893992424011230469e+01 -1.625993537902832031e+01 2.123723983764648438e+00 3.660445511341094971e-01 8.991782665252685547e-01 -2.397704571485519409e-01
1.169318008422851562e+01 2.026709747314453125e+01 4.270235061645507812e+00 -8.889744281768798828e-01 4.102343618869781494e-01 2.035490125417709351e-01
-1.913121604919433594e+01 -1.885236549377441406e+01 -1.709797739982604980e+00 2.394162118434906006e-02 -2.640507183969020844e-02 9.993645548820495605e-01
