-9.490380287170410156e+00 7.543644428253173828e+00 -1.260099530220031738e+00 1.122404355555772781e-02 5.322278663516044617e-02 9.985195994377136230e-01
-4.916428565979003906e+00 -5.715347766876220703e+00 2.766835689544677734e+00 4.854373335838317871e-01 8.738583922386169434e-01 -2.687171846628189087e-02
-3.760528326034545898e+00 -6.963188648223876953e+00 2.090499401092529297e+00 -6.118224859237670898e-01 3.608954548835754395e-01 -7.038662433624267578e-01
7.090690732002258301e-01 1.489701747894287109e+01 3.429791688919067383e+00 6.615880131721496582e-02 -5.116919521242380142e-03 -9.977959990501403809e-01
1.128743553161621094e+01 -1.038404273986816406e+01 -5.489624142646789551e-01 -1.581775955855846405e-02 2.683660015463829041e-02 9.995146989822387695e-01
-4.046273827552795410e-01 7.046549797058105469e+00 3.386321544647216797e+00 8.666710853576660156e-01 2.364885509014129639e-01 -4.392657876014709473e-01
1.445105743408203125e+01 -1.263393211364746094e+01 -4.006710648536682129e-01 -6.199158262461423874e-03 -2.373884897679090500e-03 9.999779462814331055e-01
1.340256118774414062e+01 -1.864252471923828125e+01 5.816337108612060547e+00 7.020299788564443588e-03 -2.623835392296314240e-02 -9.996310472488403320e-01
-8.064745903015136719e+00 3.339621067047119141e+00 -1.141710281372070312e+00 1.214952021837234497e-02 -1.752201816998422146e-03 9.999246597290039062e-01
-2.213226699829101562e+01 8.120688438415527344e+00 -1.015974998474121094e+00 3.411850333213806152e-02 2.039785124361515045e-02 9.992096424102783203e-01
-9.005208969116210938e+00 5.277527332305908203e+00 -1.211648821830749512e+00 4.834129940718412399e-03 3.877443820238113403e-02 9.992362856864929199e-01
-1.701967430114746094e+01 2.308035850524902344e+01 -1.339371562004089355e+00 2.880949713289737701e-02 -3.167608985677361488e-03 9.995799064636230469e-01
1.972064399719238281e+01 -2.058698081970214844e+01 4.590691089630126953e+00 3.297087252140045166e-01 9.336403608322143555e-01 1.400281488895416260e-01
2.226048660278320312e+01 -1.363812446594238281e+01 -1.919174492359161377e-01 -8.621742948889732361e-03 8.764734119176864624e-02 9.961142539978027344e-01
-1.132782077789306641e+01 1.937686920166015625e+01 2.874975837767124176e-02 -1.428171694278717041e-01 1.764130219817161560e-02 9.895918369293212891e-01
3.855551719665527344e+00 -1.064297199249267578e+01 1.133993506431579590e+00 6.073358058929443359e-01 7.902043461799621582e-01 8.197725564241409302e-02
-4.198707103729248047e+00 -3.792707443237304688e+00 -5.655492469668388367e-02 4.062005877494812012e-01 9.073826670646667480e-01 1.079711690545082092e-01
5.292174816131591797e+00 -4.126130104064941406e+00 -8.745554089546203613e-01 -1.697566546499729156e-02 2.027099020779132843e-02 9.996504187583923340e-01
-9.814139366149902344e+00 5.855164527893066406e+00 -1.229803442955017090e+00 8.654168993234634399e-02 1.166662317700684071e-03 9.962475299835205078e-01
1.437848949432373047e+01 -1.919899749755859375e+01 2.620840549468994141e+00 -5.940071120858192444e-02 -1.293986886739730835e-01 -9.898118972778320312e-01
-1.167939567565917969e+01 2.343220901489257812e+01 -1.451144814491271973e+00 5.285295844078063965e-02 -1.535927876830101013e-02 9.984841942787170410e-01
-4.921321868896484375e+00 -5.541348934173583984e+00 4.162491321563720703e+00 7.257053852081298828e-01 6.879922151565551758e-01 4.291363526135683060e-03
-1.395856857299804688e+01 2.236351251602172852e+00 -1.039326667785644531e+00 6.387279182672500610e-02 7.141516357660293579e-02 9.953994750976562500e-01
-1.525989341735839844e+01 1.219492340087890625e+01 3.287856578826904297e-01 9.869133234024047852e-01 4.694416746497154236e-02 -1.542669981718063354e-01
8.120141983032226562e+00 -1.483430004119873047e+01 5.677204132080078125e-01 6.680583953857421875e-01 7.439944148063659668e-01 -1.304813940078020096e-02
-6.744830608367919922e-01 -9.912230491638183594e+00 1.372354149818420410e+00 4.888016581535339355e-01 8.709827661514282227e-01 -4.961871728301048279e-02
-1.273134422302246094e+01 6.685794353485107422e+00 -1.196556329727172852e+00 3.086954355239868164e-03 3.628128767013549805e-02 9.993368387222290039e-01
-3.425967693328857422e+00 -4.860193252563476562e+00 -6.415557265281677246e-01 2.158648334443569183e-02 8.969620615243911743e-02 9.957352280616760254e-01
1.721328377723693848e+00 -9.213604927062988281e+00 2.583300590515136719e+00 4.871593415737152100e-01 8.719873428344726562e-01 -4.810207709670066833e-02
-7.079987525939941406e+00 3.161020040512084961e+00 -1.126638650894165039e+00 -1.092295348644256592e-02 2.783754840493202209e-02 9.995527863502502441e-01
-9.722385406494140625e+00 2.156591796875000000e+01 -1.508337855339050293e+00 -7.514660060405731201e-02 3.913020715117454529e-02 9.964044690132141113e-01
-1.263913440704345703e+01 -3.150677442550659180e+00 5.546701431274414062e+00 -1.660106889903545380e-02 -9.167598932981491089e-02 -9.956504702568054199e-01
-3.550733029842376709e-01 -1.004004669189453125e+01 2.188526630401611328e+00 -1.338549256324768066e-01 8.307227492332458496e-01 -5.403541326522827148e-01
-2.177724361419677734e+00 1.189141273498535156e+01 5.166904926300048828e+00 1.054800897836685181e-01 -7.925280928611755371e-01 -6.006439328193664551e-01
-1.129945468902587891e+01 7.368975162506103516e+00 -1.230996251106262207e+00 1.008066441863775253e-02 4.176092520356178284e-02 9.990767836570739746e-01
-2.050829887390136719e+01 1.986949729919433594e+01 -1.255428314208984375e+00 2.245139889419078827e-02 3.372611536178737879e-04 9.997478723526000977e-01
7.164477825164794922e+00 4.861194133758544922e+00 5.578374385833740234e+00 -2.013042867183685303e-01 -9.035632610321044922e-01 -3.782196044921875000e-01
-1.117541885375976562e+01 -4.000411987304687500e+00 5.536066532135009766e+00 -9.337878972291946411e-02 -6.449013948440551758e-02 -9.935398697853088379e-01
1.350749969482421875e+01 -8.740695953369140625e+00 -5.369781851768493652e-01 -1.847977004945278168e-02 2.037194371223449707e-02 9.996216893196105957e-01
-1.688004684448242188e+01 2.583644866943359375e+00 -1.002913355827331543e+00 -4.594429209828376770e-02 2.355759739875793457e-01 9.707693457603454590e-01
-2.157737922668457031e+01 1.665698432922363281e+01 -1.126268148422241211e+00 3.167923539876937866e-02 6.242359086172655225e-05 9.994980692863464355e-01
-7.079071521759033203e+00 -6.743822097778320312e+00 5.481566905975341797e+00 1.125529855489730835e-01 -2.829492092132568359e-02 -9.932428002357482910e-01
-1.474379253387451172e+01 -2.061783075332641602e+00 6.372776031494140625e+00 -1.959461867809295654e-01 9.617152214050292969e-01 -1.915957629680633545e-01
-8.679504394531250000e+00 3.410791158676147461e+00 -1.159272909164428711e+00 -1.046181004494428635e-02 4.627746343612670898e-02 9.988738298416137695e-01
1.347187328338623047e+01 -1.654973411560058594e+01 4.547834396362304688e+00 2.585212886333465576e-01 9.646220207214355469e-01 -5.168327316641807556e-02
1.152477931976318359e+01 -1.132465457916259766e+01 -5.303118824958801270e-01 -2.156512625515460968e-02 3.109516017138957977e-02 9.992837905883789062e-01
2.242977619171142578e+00 -7.163551807403564453e+00 -5.988386273384094238e-01 3.559865057468414307e-02 8.900684863328933716e-02 9.953946471214294434e-01
-2.430074930191040039e+00 9.764163970947265625e+00 -9.973863959312438965e-01 7.153136134147644043e-01 6.985258460044860840e-01 -1.970103941857814789e-02
2.308837890625000000e+01 -6.745084762573242188e+00 2.564306259155273438e+00 -9.819735884666442871e-01 -1.885848045349121094e-01 1.279445365071296692e-02
-5.745331287384033203e+00 -5.470592975616455078e+00 3.364784240722656250e+00 4.143504798412322998e-02 9.025121331214904785e-01 4.286665022373199463e-01
-1.799926185607910156e+01 6.036375999450683594e+00 -1.092805266380310059e+00 1.306078676134347916e-02 2.903187461197376251e-02 9.994931817054748535e-01
1.717251205444335938e+01 -1.899742126464843750e+01 2.951565265655517578e+00 3.960791528224945068e-01 9.126240611076354980e-01 -1.011858284473419189e-01
-6.827759265899658203e+00 -1.086009502410888672e+00 -9.413800835609436035e-01 4.514579102396965027e-02 2.913700640201568604e-01 9.555445313453674316e-01
1.486433410644531250e+01 -1.724360275268554688e+01 2.940018177032470703e+00 5.357924699783325195e-01 8.441522717475891113e-01 1.825805939733982086e-02
-1.017835235595703125e+01 -3.069772005081176758e+00 4.760819911956787109e+00 1.327342237345874310e-03 9.591327905654907227e-01 -2.829533219337463379e-01
1.625879096984863281e+01 -1.298539257049560547e+01 -3.884958028793334961e-01 -2.544756606221199036e-02 -1.433455152437090874e-03 9.996751546859741211e-01
1.150913238525390625e+01 -1.550702857971191406e+01 5.512883067131042480e-01 6.359768509864807129e-01 7.717021703720092773e-01 -3.039960283786058426e-03
1.950071334838867188e+01 -1.609805870056152344e+01 -2.081509828567504883e-01 -5.797435715794563293e-02 2.398013882339000702e-02 9.980300068855285645e-01
-3.075983762741088867e+00 1.067768764495849609e+01 2.970576763153076172e+00 9.099438190460205078e-01 4.073629677295684814e-01 7.783120870590209961e-02
-1.253076839447021484e+01 1.010485053062438965e+00 -1.028111696243286133e+00 7.863214612007141113e-02 1.161047443747520447e-01 9.901195168495178223e-01
-2.454320192337036133e+00 -3.386476516723632812e+00 -8.370771408081054688e-01 2.124984934926033020e-02 2.612484693527221680e-01 9.650376439094543457e-01
1.082840156555175781e+01 2.991165161132812500e+00 2.707549571990966797e+00 -1.327256709337234497e-01 -9.910448789596557617e-01 -1.462806202471256256e-02
-7.580427646636962891e+00 -7.598306655883789062e+00 2.220888376235961914e+00 -2.964844182133674622e-02 -9.116156399250030518e-02 -9.953946471214294434e-01
-3.653479576110839844e+00 1.865100669860839844e+01 2.565137147903442383e+00 8.528065681457519531e-01 -3.127104789018630981e-02 5.212897658348083496e-01
2.047343730926513672e+00 -9.600011825561523438e+00 -3.829473629593849182e-02 4.922785162925720215e-01 8.703412413597106934e-01 -1.296218764036893845e-02
-1.643727111816406250e+01 -1.939287781715393066e+00 1.551040172576904297e+00 -7.832345366477966309e-02 9.968597888946533203e-01 -1.166026107966899872e-02
2.345003128051757812e+01 -7.438868045806884766e+00 1.556274056434631348e+00 5.524241924285888672e-01 8.324730992317199707e-01 -4.261483997106552124e-02
5.886581540107727051e-01 -3.393777370452880859e+00 -9.507612586021423340e-01 7.677867077291011810e-03 4.396067932248115540e-02 9.990037679672241211e-01
2.420173645019531250e+01 -1.264348125457763672e+01 -3.210844397544860840e-01 -9.887369722127914429e-02 -8.942776918411254883e-02 9.910734891891479492e-01
-1.845401382446289062e+01 1.568112659454345703e+01 -1.239180445671081543e+00 2.908132970333099365e-02 1.257776375859975815e-02 9.994978904724121094e-01
6.122977733612060547e+00 -1.183872127532958984e+01 2.359978437423706055e+00 6.057515144348144531e-01 7.759230732917785645e-01 -1.760921329259872437e-01
1.960290718078613281e+01 -1.179017353057861328e+01 -2.873292863368988037e-01 1.432777848094701767e-02 4.793260246515274048e-02 9.987478256225585938e-01
1.234800720214843750e+01 -1.606614494323730469e+01 9.506994485855102539e-01 6.965098381042480469e-01 7.145033478736877441e-01 6.602300703525543213e-02
-6.901834964752197266e+00 1.553215217590332031e+01 2.135677337646484375e+00 8.701147437095642090e-01 4.676772654056549072e-01 -1.554935872554779053e-01
-1.748842811584472656e+01 1.832077598571777344e+01 -1.345971584320068359e+00 1.838495396077632904e-02 9.978158399462699890e-03 9.997811913490295410e-01
2.453322029113769531e+01 -1.493635940551757812e+01 -1.566770374774932861e-01 2.470479160547256470e-02 6.732541322708129883e-02 9.974251389503479004e-01
-2.253989982604980469e+01 1.966975975036621094e+01 -1.190220355987548828e+00 3.201644495129585266e-02 1.319470629096031189e-02 9.994002580642700195e-01
-9.673315048217773438e+00 -2.930895805358886719e+00 1.951026320457458496e+00 2.472621649503707886e-01 9.657372236251831055e-01 -7.882290333509445190e-02
2.542408943176269531e+01 -8.909374237060546875e+00 -2.246657386422157288e-02 3.992412686347961426e-01 8.908913135528564453e-01 -2.166080921888351440e-01
-4.060684204101562500e+00 -6.828900814056396484e+00 1.502329707145690918e+00 -2.900242507457733154e-01 -6.262897253036499023e-01 7.236346602439880371e-01
-3.552457094192504883e+00 2.104614448547363281e+01 4.943859100341796875e+00 -5.153756737709045410e-01 3.232439458370208740e-01 -7.936632037162780762e-01
3.584045171737670898e+00 6.697400569915771484e+00 3.888183116912841797e+00 8.465936779975891113e-02 -7.834835052490234375e-01 6.156187057495117188e-01
-1.647017097473144531e+01 -1.979702830314636230e+00 6.157499790191650391e+00 -1.828328818082809448e-01 9.827658534049987793e-01 -2.726645022630691528e-02
2.038183021545410156e+01 -9.832284927368164062e+00 -4.565608203411102295e-01 -2.692230977118015289e-02 1.410497426986694336e-01 9.896363615989685059e-01
7.529923915863037109e+00 -7.465186119079589844e+00 -7.152439355850219727e-01 -1.801952347159385681e-02 1.738215237855911255e-02 9.996865391731262207e-01
1.001952743530273438e+01 -1.485265827178955078e+01 2.364656448364257812e+00 -1.439487636089324951e-01 5.661731958389282227e-01 -8.116198182106018066e-01
-1.287056636810302734e+01 1.898089981079101562e+01 -1.479869127273559570e+00 7.589461207389831543e-01 -4.038238823413848877e-01 -5.108101963996887207e-01
-1.764846324920654297e+00 1.198966217041015625e+01 5.363695144653320312e+00 4.519879817962646484e-01 -8.745627403259277344e-01 1.756327301263809204e-01
-2.574290037155151367e+00 9.931984901428222656e+00 3.796787977218627930e+00 -4.748851954936981201e-01 1.623145490884780884e-01 -8.649497032165527344e-01
-1.191123962402343750e+01 1.959785652160644531e+01 -1.574746370315551758e+00 3.557563722133636475e-01 5.999444797635078430e-02 9.326511025428771973e-01
5.766417980194091797e+00 -1.153688335418701172e+01 3.357052803039550781e+00 5.781913995742797852e-01 8.130789399147033691e-01 -6.780374795198440552e-02
-1.188662242889404297e+01 4.596253395080566406e+00 -1.130233049392700195e+00 -9.749554097652435303e-03 2.274189330637454987e-02 9.996938109397888184e-01
5.777122497558593750e+00 -1.165763092041015625e+01 4.891262531280517578e+00 5.378611683845520020e-01 8.427461385726928711e-01 -2.200708910822868347e-02
-3.905421257019042969e+00 2.108851623535156250e+01 2.748005390167236328e+00 8.756943345069885254e-01 -4.497909545898437500e-01 -1.756346225738525391e-01
-3.585546970367431641e+00 2.232253074645996094e+01 5.532794475555419922e+00 9.970774650573730469e-01 5.955030396580696106e-02 -4.785730317234992981e-02
-1.312258720397949219e+01 -2.404488563537597656e+00 1.012045741081237793e+00 -2.495992928743362427e-01 9.456321597099304199e-01 -2.085186392068862915e-01
1.752315711975097656e+01 -1.912233543395996094e+01 3.570216178894042969e+00 3.266296088695526123e-01 9.443480968475341797e-01 3.898494690656661987e-02
4.922128915786743164e-01 3.364523172378540039e+00 -1.341520071029663086e+00 1.893721371889114380e-01 1.364295631647109985e-01 9.723811745643615723e-01
1.255893898010253906e+01 -1.529889488220214844e+01 -9.221993386745452881e-02 3.804852813482284546e-02 8.579609543085098267e-02 9.955859184265136719e-01
-6.110942363739013672e+00 4.374211311340332031e+00 -1.184864759445190430e+00 1.899411343038082123e-02 6.241343170404434204e-02 9.978696107864379883e-01
-2.194413757324218750e+01 1.355958843231201172e+01 -1.089565634727478027e+00 3.663201630115509033e-02 8.140522986650466919e-03 9.992956519126892090e-01
-2.404679298400878906e+01 1.300540733337402344e+01 -1.011091589927673340e+00 3.696101903915405273e-02 1.581240096129477024e-03 9.993154406547546387e-01
-2.396442413330078125e+01 -5.841485023498535156e+00 2.192047119140625000e+00 -2.786563634872436523e-01 9.544242024421691895e-01 -1.068880110979080200e-01
1.492237663269042969e+01 -1.457752037048339844e+01 -2.217805385589599609e-01 1.305616740137338638e-02 1.378269344568252563e-01 9.903702735900878906e-01
-3.363168716430664062e+00 1.792299842834472656e+01 4.599045753479003906e+00 -3.960968554019927979e-01 -9.123739004135131836e-01 -1.033497229218482971e-01
1.969531250000000000e+01 -1.359097003936767578e+01 -2.461994886398315430e-01 -2.782434038817882538e-02 5.767746828496456146e-03 9.995961785316467285e-01
-1.642323112487792969e+01 -1.940249562263488770e+00 -5.976667404174804688e-01 -5.811850074678659439e-03 9.855615496635437012e-01 1.692177057266235352e-01
-6.667429447174072266e+00 2.037508201599121094e+01 8.020896315574645996e-01 9.591346383094787598e-01 -2.032823860645294189e-01 -1.968173533678054810e-01
-1.566280603408813477e+00 9.853888511657714844e+00 3.950398445129394531e+00 -1.486268173903226852e-02 -5.444642901420593262e-01 -8.386523127555847168e-01
2.796212959289550781e+01 -1.058967590332031250e+01 7.494131922721862793e-01 5.881451964378356934e-01 8.071550130844116211e-01 -5.085219442844390869e-02
-3.867860078811645508e+00 -6.194222927093505859e+00 3.378095149993896484e+00 5.244340896606445312e-01 8.499857187271118164e-01 -4.993188753724098206e-02
1.602739906311035156e+01 -1.049989986419677734e+01 -4.106463193893432617e-01 3.373937448486685753e-03 2.261040359735488892e-02 9.997386336326599121e-01
-5.173095226287841797e+00 3.227442026138305664e+00 -1.121865153312683105e+00 1.253582537174224854e-01 -1.071435678750276566e-02 9.920536875724792480e-01
3.981263399124145508e+00 3.711174726486206055e+00 -1.259634971618652344e+00 -1.698395982384681702e-02 7.057779934257268906e-03 9.998308420181274414e-01
1.269580078125000000e+01 -1.013702774047851562e+01 -5.273310542106628418e-01 -4.154422786086797714e-03 3.943395614624023438e-02 9.992135167121887207e-01
9.588632583618164062e+00 2.139640301465988159e-01 -1.045737624168395996e+00 -2.977357059717178345e-02 -1.016965974122285843e-02 9.995049238204956055e-01
-2.981020450592041016e+00 1.650633621215820312e+01 7.159193992614746094e+00 9.884263277053833008e-01 1.339963078498840332e-01 7.112246751785278320e-02
-9.639837741851806641e-01 9.426998347043991089e-02 -1.093457341194152832e+00 4.886707291007041931e-03 2.747590094804763794e-02 9.996105432510375977e-01
5.510461807250976562e+00 4.129038333892822266e+00 2.332959651947021484e+00 -1.297115832567214966e-01 -8.861526846885681152e-01 4.448689222335815430e-01
1.478720378875732422e+01 -1.393450927734375000e+01 -3.072925806045532227e-01 1.287818402051925659e-01 2.034357190132141113e-01 9.705818891525268555e-01
-1.683147239685058594e+01 1.739854049682617188e+01 -1.292229294776916504e+00 -1.300966646522283554e-02 1.675451695919036865e-01 9.857785701751708984e-01
1.558306980133056641e+01 -1.050960731506347656e+01 -4.063709080219268799e-01 -8.243878372013568878e-03 1.761738210916519165e-02 9.998108148574829102e-01
2.724138450622558594e+01 -9.982122421264648438e+00 1.665339112281799316e+00 6.065680980682373047e-01 7.910909056663513184e-01 -7.905916869640350342e-02
-6.569478034973144531e+00 1.845091438293457031e+01 -9.011608362197875977e-02 9.527228474617004395e-01 6.070436164736747742e-02 2.977147996425628662e-01
1.174420738220214844e+01 2.808175086975097656e+00 3.927682638168334961e+00 -1.551632136106491089e-01 -9.877790212631225586e-01 1.473168283700942993e-02
-2.319698095321655273e+00 -7.111584663391113281e+00 2.934311151504516602e+00 4.972352385520935059e-01 8.670144677162170410e-01 -3.229641541838645935e-02
-3.402722597122192383e+00 2.002832984924316406e+01 5.144314765930175781e+00 3.915190324187278748e-02 -8.045481443405151367e-01 -5.925955176353454590e-01
-1.906306838989257812e+01 -2.735083103179931641e+00 6.142452239990234375e+00 5.946988612413406372e-02 9.971561431884765625e-01 -4.629166796803474426e-02
1.290298748016357422e+01 -1.065564155578613281e+01 -5.106905102729797363e-01 -1.434619352221488953e-02 1.860190741717815399e-02 9.997240304946899414e-01
-1.325965023040771484e+01 2.236478805541992188e+01 -1.382546305656433105e+00 -7.813040912151336670e-02 -1.204935386776924133e-01 9.896347522735595703e-01
1.285565662384033203e+01 -7.254214286804199219e+00 -6.026313304901123047e-01 1.321795489639043808e-02 7.571969926357269287e-02 9.970415234565734863e-01
-9.097140312194824219e+00 -7.540055274963378906e+00 2.245094776153564453e+00 2.236532866954803467e-01 -1.552702635526657104e-01 -9.622215628623962402e-01
1.166971206665039062e+01 -1.555520248413085938e+01 2.360687017440795898e+00 6.174474358558654785e-01 7.866003513336181641e-01 -4.300178959965705872e-03
-1.479150104522705078e+01 8.886292457580566406e+00 -1.194064855575561523e+00 6.354906130582094193e-03 1.126096118241548538e-02 9.999163746833801270e-01
-1.066920280456542969e+01 -3.168631076812744141e+00 1.758753299713134766e+00 8.907433748245239258e-01 4.318672418594360352e-01 1.416579186916351318e-01
6.739064216613769531e+00 3.429078817367553711e+00 1.571847200393676758e-01 -3.821022808551788330e-01 -9.198550581932067871e-01 8.868230134248733521e-02
3.925145149230957031e+00 -8.167414665222167969e+00 -5.640647411346435547e-01 2.938550524413585663e-02 1.003636419773101807e-01 9.945167899131774902e-01
1.881493687629699707e+00 6.646967411041259766e+00 2.868972301483154297e+00 -5.446931719779968262e-01 -2.794469594955444336e-01 -7.907077074050903320e-01
1.854223442077636719e+01 -1.976298332214355469e+01 3.954767227172851562e+00 5.216531753540039062e-01 8.523995876312255859e-01 -3.595613688230514526e-02
-7.554788608103990555e-04 6.558611392974853516e+00 4.323211669921875000e+00 7.360308617353439331e-02 -2.539345026016235352e-01 -9.644168615341186523e-01
-6.153862476348876953e+00 1.392522621154785156e+01 1.325563788414001465e+00 -5.145121812820434570e-01 -8.564176559448242188e-01 -4.273133724927902222e-02
-5.268663883209228516e+00 2.205788344144821167e-01 -1.088212609291076660e+00 -1.074669137597084045e-02 5.201613903045654297e-02 9.985884428024291992e-01
2.426817131042480469e+01 -1.054898834228515625e+01 -4.148235917091369629e-01 -1.240928173065185547e-01 8.023270964622497559e-02 9.890215992927551270e-01
1.628049659729003906e+01 -1.369622826576232910e+00 3.157773733139038086e+00 -7.848654985427856445e-01 -5.914800167083740234e-01 -1.847635656595230103e-01
1.445085525512695312e+01 -1.831199073791503906e+01 5.818346500396728516e+00 -3.464381396770477295e-02 -6.481459736824035645e-02 -9.972957968711853027e-01
-1.670382499694824219e+01 -1.989856004714965820e+00 -2.318193465471267700e-01 -1.312664300203323364e-01 9.913215637207031250e-01 7.120033726096153259e-03
-1.812798881530761719e+01 1.489135837554931641e+01 -1.231636762619018555e+00 2.067780308425426483e-02 1.763119548559188843e-02 9.996306896209716797e-01
-8.406398773193359375e+00 -4.090611457824707031e+00 -5.586516261100769043e-01 7.512660026550292969e-01 3.559722900390625000e-01 -5.557726025581359863e-01
-2.265062713623046875e+01 -5.483966827392578125e+00 6.717820644378662109e+00 -5.750169754028320312e-01 7.995241284370422363e-01 1.735415309667587280e-01
-7.893535137176513672e+00 -3.820491075515747070e+00 -6.231893897056579590e-01 1.375561803579330444e-01 1.977360844612121582e-01 9.705559015274047852e-01
1.615565490722656250e+01 -1.839365386962890625e+01 1.922051310539245605e+00 6.045693159103393555e-01 7.938404083251953125e-01 -6.567601859569549561e-02
-7.266630172729492188e+00 2.196021270751953125e+01 3.830631077289581299e-01 9.774432778358459473e-01 -2.024395018815994263e-02 -2.102257311344146729e-01
1.915687370300292969e+01 -5.253059864044189453e+00 -6.836408376693725586e-01 -9.835780598223209381e-03 4.501580726355314255e-03 9.999414682388305664e-01
1.639858055114746094e+01 -9.949809312820434570e-01 4.334202289581298828e+00 -9.234922528266906738e-01 -2.643501758575439453e-01 2.779946327209472656e-01
-3.504651069641113281e+00 2.318832969665527344e+01 6.597466945648193359e+00 9.862433075904846191e-01 1.645018756389617920e-01 -1.622616313397884369e-02
2.549924659729003906e+01 -8.762782096862792969e+00 2.354188680648803711e+00 4.501105248928070068e-01 8.929678201675415039e-01 -2.993568079546093941e-03
-3.482937335968017578e+00 2.318544578552246094e+01 7.191934585571289062e+00 9.986656308174133301e-01 4.916196689009666443e-02 -1.581150293350219727e-02
-3.579675436019897461e+00 1.854451560974121094e+01 4.549103736877441406e+00 -1.092167422175407410e-01 1.415349841117858887e-01 -9.838899970054626465e-01
1.151516914367675781e+01 1.728076040744781494e-01 -6.616105437278747559e-01 -5.753465294837951660e-01 -8.121210336685180664e-01 9.713795781135559082e-02
-1.606249809265136719e+01 -2.024218320846557617e+00 5.456210970878601074e-01 4.038929045200347900e-01 9.141045808792114258e-01 -3.582355752587318420e-02
2.206980586051940918e-01 -3.667164325714111328e+00 -9.378753900527954102e-01 5.396816879510879517e-03 3.216166794300079346e-02 9.994680881500244141e-01
-1.107408809661865234e+01 1.574301147460937500e+01 -3.729975596070289612e-02 2.756789028644561768e-01 -5.244303941726684570e-01 8.055891990661621094e-01
-1.060186862945556641e+01 -2.823900461196899414e+00 2.192978858947753906e+00 5.130377411842346191e-01 7.941009402275085449e-01 -3.258772790431976318e-01
9.075234413146972656e+00 -1.396148204803466797e+01 4.753005504608154297e+00 5.594472885131835938e-01 8.283913135528564453e-01 -2.804602682590484619e-02
-6.337769508361816406e+00 1.766844940185546875e+01 8.992466330528259277e-01 -2.980977892875671387e-01 -9.543964862823486328e-01 1.627934165298938751e-02
9.064311027526855469e+00 -1.554581928253173828e+01 5.372142195701599121e-01 5.668861269950866699e-01 8.235483765602111816e-01 -2.020295709371566772e-02
1.167697429656982422e+01 -1.559529685974121094e+01 1.554779887199401855e+00 6.019153594970703125e-01 7.936016917228698730e-01 -8.884942531585693359e-02
3.666444540023803711e+00 -4.290137290954589844e+00 -8.839963078498840332e-01 -7.115373853594064713e-03 5.439513921737670898e-02 9.984941482543945312e-01
-6.178884029388427734e+00 1.645749282836914062e+01 8.066967964172363281e+00 2.701556682586669922e-01 -9.627956151962280273e-01 -6.362733431160449982e-03
4.067636013031005859e+00 3.177715539932250977e+00 -1.251983880996704102e+00 -3.535848110914230347e-02 -1.241463609039783478e-02 9.992975592613220215e-01
2.218780326843261719e+01 -7.713509082794189453e+00 -5.338554978370666504e-01 -8.770700544118881226e-02 9.171994170174002647e-04 9.961459040641784668e-01
2.283577680587768555e+00 -9.652361869812011719e+00 1.947476863861083984e+00 5.019787549972534180e-01 8.645929098129272461e-01 -2.228102833032608032e-02
-1.636370277404785156e+01 1.546009635925292969e+01 -1.294471383094787598e+00 3.930176421999931335e-02 1.232399325817823410e-02 9.991514086723327637e-01
-1.453762054443359375e+01 -2.324122667312622070e+00 5.503468990325927734e+00 4.510133862495422363e-01 6.638808250427246094e-01 -5.965309143066406250e-01
-1.002817916870117188e+01 -3.051186084747314453e+00 5.329874038696289062e+00 1.260818690061569214e-01 9.907281994819641113e-01 5.060607567429542542e-02
-2.055608667433261871e-02 7.815539836883544922e+00 -2.549086511135101318e-01 -5.245835781097412109e-01 -8.501023650169372559e-01 4.623927548527717590e-02
2.382328510284423828e+00 6.499110698699951172e+00 2.764889240264892578e+00 1.274786740541458130e-01 -8.268260359764099121e-01 -5.478210449218750000e-01
5.363274574279785156e+00 -5.098349452018737793e-01 -1.096455454826354980e+00 1.498873624950647354e-02 8.150255680084228516e-02 9.965603947639465332e-01
-2.093331336975097656e+01 -4.017261981964111328e+00 7.526998519897460938e+00 -2.356890141963958740e-01 9.713753461837768555e-01 -2.967600710690021515e-02
-4.237927913665771484e+00 -5.988090991973876953e+00 3.192010879516601562e+00 4.920858740806579590e-01 8.665304780006408691e-01 -8.352467417716979980e-02
7.014672756195068359e+00 -1.266416549682617188e+01 1.169031977653503418e+00 4.702900946140289307e-01 8.817518353462219238e-01 3.661895543336868286e-02
1.735579681396484375e+01 -5.063096523284912109e+00 -7.636009454727172852e-01 -9.024213999509811401e-03 -3.162465617060661316e-02 9.994590878486633301e-01
5.834713935852050781e+00 6.267817020416259766e+00 4.494195461273193359e+00 -9.548652172088623047e-01 2.880745232105255127e-01 7.242574542760848999e-02
1.867920303344726562e+01 -1.978701782226562500e+01 5.118680477142333984e+00 5.778471827507019043e-01 8.096441626548767090e-01 -1.028055697679519653e-01
-8.570050239562988281e+00 -2.604570388793945312e+00 -7.090697884559631348e-01 1.121311113238334656e-01 6.415823101997375488e-02 9.916200637817382812e-01
2.045202255249023438e+01 -1.223571109771728516e+01 -2.911874353885650635e-01 3.821685537695884705e-02 6.339360773563385010e-02 9.972565770149230957e-01
-5.997660160064697266e+00 1.469185161590576172e+01 3.951704740524291992e+00 6.409031152725219727e-01 6.271421313285827637e-01 -4.426465332508087158e-01
7.345774650573730469e+00 2.567827403545379639e-01 -1.112386345863342285e+00 -6.215888634324073792e-02 -6.585102528333663940e-02 9.958915114402770996e-01
-1.103646087646484375e+01 4.029222965240478516e+00 -1.137731194496154785e+00 8.352938294410705566e-02 -6.959130987524986267e-03 9.964810013771057129e-01
-3.809975862503051758e+00 2.138301467895507812e+01 3.957420110702514648e+00 6.812394261360168457e-01 -7.119117379188537598e-01 -1.705711930990219116e-01
1.759589958190917969e+01 -3.799105167388916016e+00 1.466579437255859375e-01 4.479665681719779968e-02 9.986494183540344238e-01 2.631760016083717346e-02
-1.346660232543945312e+01 9.112881660461425781e+00 -1.254620909690856934e+00 1.210304647684097290e-01 -5.022285506129264832e-02 9.913774728775024414e-01
2.332461357116699219e+01 -1.376476955413818359e+01 -2.106406837701797485e-01 2.180732600390911102e-02 6.041777506470680237e-02 9.979349374771118164e-01
1.367420101165771484e+01 -1.750592994689941406e+01 2.433011770248413086e+00 -1.945889890193939209e-01 -5.448593199253082275e-02 -9.793704152107238770e-01
2.482191473245620728e-01 8.400805592536926270e-01 -1.148532986640930176e+00 1.110382750630378723e-02 7.384663075208663940e-02 9.972078204154968262e-01
1.115800762176513672e+01 2.979412794113159180e+00 6.563786029815673828e+00 -2.179801613092422485e-01 -9.743658304214477539e-01 5.564010888338088989e-02
-3.260764122009277344e+00 1.701070976257324219e+01 6.743538856506347656e+00 8.786871433258056641e-01 2.296850234270095825e-01 -4.185136556625366211e-01
4.461989879608154297e+00 4.694187641143798828e+00 2.213364601135253906e+00 -8.411084413528442383e-01 5.864321440458297729e-02 5.376779437065124512e-01
-3.720728635787963867e+00 -8.216658592224121094e+00 5.418648242950439453e+00 -9.748540818691253662e-03 -2.600363641977310181e-02 -9.996142983436584473e-01
-1.358331871032714844e+01 -1.898363709449768066e+00 3.378319025039672852e+00 3.020345866680145264e-01 9.496578574180603027e-01 8.321701735258102417e-02
-7.792098522186279297e-01 -7.981682777404785156e+00 3.138053894042968750e+00 4.548893570899963379e-01 8.884543180465698242e-01 -6.102924048900604248e-02
9.606762886047363281e+00 3.628730535507202148e+00 1.823857784271240234e+00 -6.033715605735778809e-01 -7.962272167205810547e-01 4.432874545454978943e-02
1.323303127288818359e+01 -1.654536437988281250e+01 1.342667698860168457e+00 2.250447273254394531e-01 9.743215441703796387e-01 7.241136394441127777e-03
1.014323234558105469e+01 -9.478465080261230469e+00 -6.094658970832824707e-01 -2.740229666233062744e-02 3.434878215193748474e-02 9.990341663360595703e-01
-2.208418655395507812e+01 1.878985214233398438e+01 -1.193773984909057617e+00 4.277369379997253418e-02 9.309913031756877899e-03 9.990414381027221680e-01
-1.743350982666015625e+01 4.318760395050048828e+00 -1.051301360130310059e+00 2.880506403744220734e-02 8.425809442996978760e-03 9.995495080947875977e-01
1.457867431640625000e+01 -1.292333126068115234e+01 -4.021250009536743164e-01 -1.638770848512649536e-02 -1.288854866288602352e-03 9.998648762702941895e-01
1.575904083251953125e+01 -9.678589105606079102e-01 3.192764520645141602e+00 -8.196038603782653809e-01 -5.544683933258056641e-01 -1.442716419696807861e-01
7.761741638183593750e+00 2.681363582611083984e+00 -4.511095881462097168e-01 -5.652585029602050781e-01 -8.238694667816162109e-01 4.149599373340606689e-02
5.065544247627258301e-01 7.552761077880859375e+00 9.302366375923156738e-01 -4.975598454475402832e-01 -8.040502667427062988e-01 3.254802227020263672e-01
-1.682364273071289062e+01 -1.263593196868896484e+00 -6.766709089279174805e-01 -5.527625977993011475e-02 1.746296286582946777e-01 9.830814003944396973e-01
5.038293361663818359e+00 -1.123659706115722656e+01 1.731869578361511230e+00 -8.267756104469299316e-01 -5.616910457611083984e-01 -3.074502199888229370e-02
-5.740915775299072266e+00 2.585657596588134766e+00 -1.099987149238586426e+00 9.144683182239532471e-02 -4.337212443351745605e-02 9.948650002479553223e-01
1.711181259155273438e+01 4.427775382995605469e+00 4.655292034149169922e+00 -3.007174134254455566e-01 -9.490414261817932129e-01 9.428365528583526611e-02
7.888648033142089844e+00 -1.322160625457763672e+01 3.588429391384124756e-01 1.732117682695388794e-01 9.804943203926086426e-01 -9.289019554853439331e-02
-9.588035583496093750e+00 3.393970966339111328e+00 -1.163551092147827148e+00 -9.122815914452075958e-03 4.091036692261695862e-02 9.991211891174316406e-01
1.097347736358642578e+01 -8.525634765625000000e+00 -6.069191098213195801e-01 -5.483590438961982727e-02 7.398092746734619141e-02 9.957509040832519531e-01
8.721477508544921875e+00 -1.196498394012451172e+00 -1.105055570602416992e+00 -7.168005406856536865e-02 -2.914395369589328766e-02 9.970018267631530762e-01
-1.162225532531738281e+01 8.746504783630371094e+00 -1.274608850479125977e+00 1.869643665850162506e-02 2.966271527111530304e-02 9.993851184844970703e-01
-3.861890554428100586e+00 2.011174774169921875e+01 4.402712345123291016e+00 9.901733994483947754e-01 -1.134826689958572388e-01 -8.172097057104110718e-02
-2.632085323333740234e+00 9.957666397094726562e+00 -1.249787807464599609e+00 -6.848967671394348145e-01 -7.267698049545288086e-01 5.217299982905387878e-02
8.483080863952636719e+00 -5.137635707855224609e+00 -7.417441606521606445e-01 -1.918619312345981598e-02 1.820317469537258148e-02 9.996501803398132324e-01
1.412969779968261719e+01 -1.686741256713867188e+01 3.761564254760742188e+00 5.048375129699707031e-01 8.617073893547058105e-01 5.098510161042213440e-02
-4.974476695060729980e-01 -7.594671249389648438e-01 -1.058988451957702637e+00 -8.896009996533393860e-03 3.827693685889244080e-02 9.992275834083557129e-01
-7.853069305419921875e+00 -4.185471534729003906e+00 3.718188524246215820e+00 5.506476163864135742e-01 7.970147132873535156e-01 2.481021732091903687e-01
1.587078285217285156e+01 -1.797860145568847656e+01 2.557117223739624023e+00 6.617197990417480469e-01 7.456836700439453125e-01 -7.799216359853744507e-02
-3.292092084884643555e+00 1.772805023193359375e+01 4.750113964080810547e+00 9.428575634956359863e-01 3.231398165225982666e-01 8.124238252639770508e-02
-1.265950489044189453e+01 2.341194534301757812e+01 -1.402779936790466309e+00 4.905145987868309021e-02 -1.473185885697603226e-02 9.986876249313354492e-01
8.677320480346679688e+00 -1.389479446411132812e+01 -9.487490355968475342e-02 6.223890185356140137e-01 -1.534433960914611816e-01 7.675200104713439941e-01
3.630021095275878906e+00 5.626080036163330078e+00 1.293509483337402344e+00 -2.583190500736236572e-01 -6.481771469116210938e-01 7.163363099098205566e-01
-1.719062995910644531e+01 1.559280490875244141e+01 -1.268235921859741211e+00 3.065551817417144775e-02 1.347990613430738449e-02 9.994391202926635742e-01
-1.406530475616455078e+01 -1.688465476036071777e+00 4.777081489562988281e+00 1.421190351247787476e-01 9.898083806037902832e-01 -9.031613357365131378e-03
1.806198692321777344e+01 -4.295110702514648438e+00 -7.265028953552246094e-01 -2.330277860164642334e-02 -4.438445568084716797e-01 8.958007693290710449e-01
-3.724292278289794922e+00 2.092765617370605469e+01 6.190403938293457031e+00 9.418753981590270996e-01 -3.331424891948699951e-01 -4.343815892934799194e-02
-2.782276570796966553e-01 1.307966518402099609e+01 2.984803915023803711e+00 6.583318114280700684e-01 -4.631527960300445557e-01 -5.933706164360046387e-01
-3.050125598907470703e+00 -6.273982048034667969e+00 -4.935751557350158691e-01 4.280898720026016235e-02 1.961399316787719727e-01 9.796410202980041504e-01
-7.746224403381347656e+00 -4.500041007995605469e+00 1.342763185501098633e+00 2.517878115177154541e-01 8.137912154197692871e-01 5.237811803817749023e-01
-4.432457923889160156e+00 -3.900328874588012695e+00 -6.952907443046569824e-01 -2.717511542141437531e-02 -1.017276942729949951e-01 9.944410324096679688e-01
9.631583094596862793e-01 6.372449874877929688e+00 4.547503948211669922e+00 2.449999563395977020e-02 -2.583815753459930420e-01 -9.657322168350219727e-01
8.907355308532714844e+00 -1.389424610137939453e+01 2.527991533279418945e+00 6.132147312164306641e-01 7.135819196701049805e-01 -3.387750387191772461e-01
1.701923942565917969e+01 -1.223640632629394531e+01 -3.907376825809478760e-01 -1.938961073756217957e-02 2.858295850455760956e-02 9.994033575057983398e-01
4.611813068389892578e+00 -6.634991645812988281e+00 -8.088616728782653809e-01 1.630689948797225952e-02 7.160859555006027222e-02 9.972994923591613770e-01
-1.793952822685241699e+00 -9.335251808166503906e+00 1.747320175170898438e+00 6.789405345916748047e-01 7.328214645385742188e-01 4.486072063446044922e-02
-1.800915241241455078e+00 -7.416488647460937500e+00 -4.821061342954635620e-02 7.046959400177001953e-01 7.076464891433715820e-01 -5.138131603598594666e-02
-1.431193351745605469e+01 -1.969069480895996094e+00 5.753102779388427734e+00 -4.225038886070251465e-01 8.724309802055358887e-01 -2.456717938184738159e-01
-2.186413526535034180e+00 9.096429824829101562e+00 2.973321676254272461e+00 7.758358120918273926e-01 3.509339094161987305e-01 5.243321061134338379e-01
-3.521604776382446289e+00 1.841396903991699219e+01 5.150310039520263672e+00 6.898105740547180176e-01 3.140877187252044678e-01 -6.523115038871765137e-01
9.682035446166992188e+00 -1.445224571228027344e+01 5.419755935668945312e+00 5.098614096641540527e-01 8.555390238761901855e-01 8.996859192848205566e-02
-5.586443901062011719e+00 -2.427657604217529297e+00 -8.270084857940673828e-01 2.489795908331871033e-02 1.057826429605484009e-01 9.940775036811828613e-01
2.443094635009765625e+01 -8.097811698913574219e+00 1.368407249450683594e+00 5.529751777648925781e-01 8.307961821556091309e-01 -6.321492046117782593e-02
1.515741729736328125e+01 -1.814295387268066406e+01 5.785785198211669922e+00 -4.668801650404930115e-02 -2.856321036815643311e-01 -9.572014212608337402e-01
1.833292484283447266e+00 -9.493911743164062500e+00 1.593522131443023682e-01 4.795317947864532471e-01 8.772147297859191895e-01 2.331434749066829681e-02
1.723454856872558594e+01 -1.425511455535888672e+01 -2.779181003570556641e-01 -2.255434729158878326e-02 1.533048111014068127e-03 9.997444152832031250e-01
-3.646272182464599609e+00 2.296147727966308594e+01 5.200285434722900391e+00 9.491422176361083984e-01 -3.143974244594573975e-01 1.683154515922069550e-02
1.530419731140136719e+01 -1.774930572509765625e+01 1.809451580047607422e+00 4.803007543087005615e-01 8.763154745101928711e-01 3.717954084277153015e-02
3.487136363983154297e+00 -1.037734985351562500e+01 4.343708515167236328e+00 4.027512669563293457e-01 9.150636792182922363e-01 2.121156826615333557e-02
-7.224734306335449219e+00 2.100662040710449219e+01 1.045296192169189453e+00 9.398432374000549316e-01 -1.046912395395338535e-03 -3.416044116020202637e-01
-1.224869060516357422e+01 2.519473266601562500e+01 -5.442566871643066406e-01 9.302458167076110840e-01 -2.622432410717010498e-01 -2.566539347171783447e-01
-5.869735497981309891e-03 1.436472988128662109e+01 2.917101144790649414e+00 7.109048962593078613e-01 -2.616508901119232178e-01 -6.528039574623107910e-01
-3.927088975906372070e+00 2.071483230590820312e+01 2.564668893814086914e+00 9.964915513992309570e-01 -6.763052195310592651e-02 -4.930249974131584167e-02
2.290661239624023438e+01 -8.857700347900390625e+00 -4.589773416519165039e-01 -7.900618016719818115e-02 4.857835359871387482e-03 9.968622922897338867e-01
9.589854240417480469e+00 3.885003805160522461e+00 7.148977279663085938e+00 -6.020155549049377441e-01 -7.977866530418395996e-01 3.337221592664718628e-02
-1.855312156677246094e+01 1.289135360717773438e+01 -1.193142890930175781e+00 2.750935591757297516e-02 1.733875088393688202e-02 9.994711875915527344e-01
1.434159946441650391e+01 -1.477860832214355469e+01 -1.965964138507843018e-01 2.302915602922439575e-02 8.525097370147705078e-02 9.960933327674865723e-01
-1.059520816802978516e+01 -2.812725067138671875e+00 5.154628276824951172e+00 3.698389530181884766e-01 7.354004979133605957e-01 5.678074359893798828e-01
-2.032872962951660156e+01 1.584686279296875000e+01 -1.164096951484680176e+00 3.353403508663177490e-02 9.751902893185615540e-03 9.993900060653686523e-01
1.882296180725097656e+01 -1.142287731170654297e+01 -3.663762211799621582e-01 -1.605831831693649292e-01 1.254945844411849976e-01 9.790118336677551270e-01
-3.604537725448608398e+00 2.135073280334472656e+01 3.973464727401733398e+00 -2.899074256420135498e-01 -9.420663714408874512e-01 1.687145978212356567e-01
-3.773254394531250000e+00 2.200970268249511719e+01 3.134745359420776367e+00 9.979115724563598633e-01 -5.964392796158790588e-02 -2.480225451290607452e-02
7.161325812339782715e-01 -5.027635097503662109e+00 -8.473652005195617676e-01 1.318230479955673218e-01 2.370080947875976562e-01 9.625226259231567383e-01
-1.187461471557617188e+01 4.175503253936767578e+00 -1.117276072502136230e+00 1.783179305493831635e-02 4.245824739336967468e-02 9.989390969276428223e-01
-1.945108032226562500e+01 1.177601718902587891e+01 -1.145933628082275391e+00 2.884218469262123108e-02 1.622057892382144928e-02 9.994523525238037109e-01
-2.292012929916381836e+00 9.324410438537597656e+00 3.074346303939819336e+00 -5.218212604522705078e-01 1.095850989222526550e-01 -8.459867835044860840e-01
4.206947326660156250e+00 7.190002441406250000e+00 5.423546314239501953e+00 4.186767712235450745e-02 6.740850806236267090e-01 -7.374661564826965332e-01
1.698700523376464844e+01 -1.156249284744262695e+00 3.673955917358398438e+00 -4.552370011806488037e-01 8.139728307723999023e-01 -3.608427345752716064e-01
-2.107942962646484375e+01 -4.041311264038085938e+00 8.156587600708007812e+00 -2.208852022886276245e-01 9.735015034675598145e-01 -5.919937789440155029e-02
-1.178477406501770020e-01 -8.513620376586914062e+00 2.384511232376098633e+00 3.423102200031280518e-01 7.828839421272277832e-01 -5.195348262786865234e-01
-2.253270339965820312e+01 9.157143592834472656e+00 -1.009719848632812500e+00 3.402133658528327942e-02 1.703685522079467773e-02 9.992758631706237793e-01
2.687835884094238281e+01 -1.028168487548828125e+01 -3.388624787330627441e-01 -4.769066721200942993e-02 -1.580542325973510742e-01 9.862780570983886719e-01
1.537957572937011719e+01 -9.979196548461914062e+00 -4.354007244110107422e-01 -1.004518568515777588e-01 6.860759854316711426e-02 9.925736188888549805e-01
-2.556550025939941406e+01 -9.219543457031250000e+00 7.108499526977539062e+00 -1.658110022544860840e-01 9.861468672752380371e-01 4.592882934957742691e-03
1.629263305664062500e+01 -1.037050724029541016e+01 -4.178999066352844238e-01 -5.926043726503849030e-03 1.640886068344116211e-03 9.999811053276062012e-01
-1.712045860290527344e+01 1.163354969024658203e+01 -1.224333882331848145e+00 2.173345535993576050e-02 1.940753124654293060e-02 9.995754361152648926e-01
3.611010313034057617e+00 -1.043250179290771484e+01 4.571901321411132812e+00 3.517557978630065918e-01 9.279095530509948730e-01 1.234977692365646362e-01
8.722770810127258301e-01 6.036609172821044922e+00 4.511450290679931641e+00 -5.141072869300842285e-01 -7.918524555861949921e-03 -8.576893210411071777e-01
5.380501270294189453e+00 1.021717643737792969e+01 2.352566003799438477e+00 -3.102306127548217773e-01 -6.550986170768737793e-01 -6.889141798019409180e-01
1.589151859283447266e+00 7.114824295043945312e+00 3.074057579040527344e+00 1.794737279415130615e-01 2.557413876056671143e-01 -9.499397277832031250e-01
9.190377235412597656e+00 -1.415355968475341797e+01 2.572187662124633789e+00 -6.174497008323669434e-01 -5.425364971160888672e-01 5.695700049400329590e-01
-3.980338096618652344e+00 1.262717151641845703e+01 5.570483684539794922e+00 -4.702154695987701416e-01 -8.775225281715393066e-01 -9.408314526081085205e-02
-8.306140899658203125e+00 7.690303802490234375e+00 -6.649411469697952271e-02 7.454830408096313477e-01 6.615778803825378418e-01 -8.105418086051940918e-02
8.222914695739746094e+00 2.400938749313354492e+00 1.365596890449523926e+00 -5.026904940605163574e-01 -7.553667426109313965e-01 4.203847944736480713e-01
1.812502479553222656e+01 -9.504410743713378906e+00 -4.657945632934570312e-01 1.814253255724906921e-02 6.062240898609161377e-02 9.979958534240722656e-01
2.658859014511108398e+00 -6.059652328491210938e+00 -7.980216145515441895e-01 1.564513295888900757e-01 3.159180283546447754e-01 9.357984662055969238e-01
-1.016508674621582031e+01 4.066717624664306641e+00 -1.186064839363098145e+00 1.755967037752270699e-03 2.350634336471557617e-02 9.997221231460571289e-01
6.362685680389404297e+00 -1.228145408630371094e+01 1.144776821136474609e+00 6.142725944519042969e-01 7.884428501129150391e-01 3.204717114567756653e-02
5.937418460845947266e+00 4.413274765014648438e+00 2.299852132797241211e+00 -6.361746191978454590e-01 5.584911108016967773e-01 -5.323246121406555176e-01
1.564319133758544922e+00 -9.191539764404296875e+00 9.378424882888793945e-01 6.090711951255798340e-01 7.930883169174194336e-01 6.570902187377214432e-03
1.274067629128694534e-02 -8.332783699035644531e+00 2.944705724716186523e+00 4.350368678569793701e-01 8.839704394340515137e-01 -1.712867468595504761e-01
4.334314823150634766e+00 -6.305561065673828125e+00 -8.218230009078979492e-01 2.794570289552211761e-03 3.533405065536499023e-02 9.993716478347778320e-01
1.198741149902343750e+01 -1.331832408905029297e+01 -2.957434654235839844e-01 2.894169650971889496e-02 7.325541228055953979e-02 9.968931674957275391e-01
2.829555749893188477e+00 -4.784530639648437500e+00 -8.747634887695312500e-01 -2.514183148741722107e-02 3.679244592785835266e-02 9.990066289901733398e-01
2.497314661741256714e-01 -6.440585255622863770e-01 -1.060031175613403320e+00 -4.601693712174892426e-03 3.921483084559440613e-02 9.992201924324035645e-01
-3.462258577346801758e+00 1.832301139831542969e+01 6.438558578491210938e+00 9.294321537017822266e-01 -2.459273040294647217e-01 2.750920057296752930e-01
-8.442518711090087891e-01 2.727244949340820312e+01 4.662989616394042969e+00 6.621282100677490234e-01 -3.619559407234191895e-01 -6.561814546585083008e-01
-8.980010032653808594e+00 1.178715825080871582e+00 -1.078285098075866699e+00 -1.154807396233081818e-02 3.212132304906845093e-02 9.994172453880310059e-01
-5.744999408721923828e+00 1.396572208404541016e+01 1.968771457672119141e+00 3.390822708606719971e-01 -7.989921569824218750e-01 4.966233968734741211e-01
1.231488895416259766e+01 -1.594926261901855469e+01 3.828235566616058350e-01 4.599534273147583008e-01 8.808946609497070312e-01 -1.116576939821243286e-01
-3.543118000030517578e+00 -6.380648136138916016e+00 2.754008293151855469e+00 4.802134037017822266e-01 8.632140159606933594e-01 -1.557453572750091553e-01
7.440853118896484375e+00 -1.271726703643798828e+01 5.086823463439941406e+00 4.610866308212280273e-01 8.675071597099304199e-01 -1.866290420293807983e-01
-3.085277795791625977e+00 1.175624465942382812e+01 4.801105976104736328e+00 -2.667856216430664062e-01 -9.375895857810974121e-01 -2.230498343706130981e-01
1.125998020172119141e+01 -1.133877563476562500e+01 -5.432548522949218750e-01 4.488272219896316528e-02 5.535637959837913513e-02 9.974573850631713867e-01
1.768448257446289062e+01 -1.921170043945312500e+01 1.157189130783081055e+00 6.301533579826354980e-01 7.704266309738159180e-01 -9.669309109449386597e-02
1.979321670532226562e+01 -2.071201324462890625e+01 3.523343205451965332e-01 -7.936052680015563965e-01 -6.022220849990844727e-01 -8.671342581510543823e-02
-1.239099216461181641e+01 -2.151640892028808594e+00 1.532982885837554932e-01 1.772232800722122192e-01 9.831179976463317871e-01 -4.550702497363090515e-02
