7.588755607604980469e+00 1.275258350372314453e+01 8.847413063049316406e-01 -1.145801320672035217e-01 -1.983109861612319946e-01 9.734187722206115723e-01
5.167829513549804688e+00 -3.981873750686645508e+00 2.530140638351440430e+00 -9.923402070999145508e-01 1.195214837789535522e-01 3.123420663177967072e-02
-3.226152181625366211e+00 -1.607804489135742188e+01 -2.645943164825439453e+00 -1.191062200814485550e-02 -3.581805154681205750e-02 9.992873668670654297e-01
-6.508935451507568359e+00 5.978258609771728516e+00 -4.511646330356597900e-01 9.800595045089721680e-01 -1.965223401784896851e-01 -2.936484478414058685e-02
1.024143314361572266e+01 1.734477996826171875e+01 1.219694018363952637e+00 -5.719527006149291992e-01 3.135370910167694092e-01 7.580004334449768066e-01
4.790363788604736328e+00 -1.058226585388183594e+01 -8.601995110511779785e-01 -9.969848990440368652e-01 -3.774879034608602524e-03 7.750395685434341431e-02
-1.514861941337585449e+00 1.225693511962890625e+01 -2.531673386693000793e-02 -1.518231779336929321e-01 -5.507577061653137207e-01 8.207409381866455078e-01
-1.149126052856445312e+00 3.095137596130371094e+00 -1.184121966361999512e+00 -4.790119081735610962e-02 -2.968269959092140198e-02 9.984109401702880859e-01
-1.025221920013427734e+01 -1.039191913604736328e+01 1.775743603706359863e+00 1.165998205542564392e-01 -2.691729366779327393e-01 9.560075402259826660e-01
-9.085695266723632812e+00 -6.191108226776123047e+00 -1.493415713310241699e+00 9.753664135932922363e-01 -1.994528919458389282e-01 9.422802180051803589e-02
-4.586617469787597656e+00 -2.524106216430664062e+01 -2.547398567199707031e+00 -4.542602598667144775e-02 1.788030751049518585e-02 9.988076686859130859e-01
8.072429656982421875e+00 1.078264141082763672e+01 4.915891170501708984e+00 -8.400259613990783691e-01 5.415272116661071777e-01 -3.323622420430183411e-02
-7.798865318298339844e+00 -2.436342048645019531e+01 -2.640511989593505859e+00 -4.541565105319023132e-02 2.798630157485604286e-03 9.989642500877380371e-01
7.933336734771728516e+00 7.313289642333984375e+00 2.701849222183227539e+00 2.936557531356811523e-01 3.608511090278625488e-01 -8.851851820945739746e-01
3.998003482818603516e+00 -4.600148677825927734e+00 -1.497904777526855469e+00 -1.147584691643714905e-01 9.146769531071186066e-03 9.933513402938842773e-01
5.908459186553955078e+00 1.143404960632324219e+01 8.920846581459045410e-01 -6.729895621538162231e-02 -1.057229749858379364e-02 9.976768493652343750e-01
-7.572948455810546875e+00 9.989910125732421875e+00 2.922017097473144531e+00 9.713364243507385254e-01 -9.936519712209701538e-02 2.159446775913238525e-01
5.390282154083251953e+00 -1.500419902801513672e+01 4.099326133728027344e+00 4.681800305843353271e-02 2.057411335408687592e-02 -9.986915588378906250e-01
5.656812667846679688e+00 -2.336843967437744141e+00 7.999829649925231934e-01 -8.435315489768981934e-01 -4.195153415203094482e-01 -3.353525996208190918e-01
6.987767219543457031e+00 4.049051284790039062e+00 5.292754650115966797e+00 3.699885308742523193e-01 -1.068275272846221924e-01 -9.228739738464355469e-01
-1.318147754669189453e+01 -1.367135143280029297e+01 2.819658279418945312e+00 -6.668201684951782227e-01 -2.123787552118301392e-01 -7.143151164054870605e-01
4.082009792327880859e+00 -6.896942615509033203e+00 -1.029993653297424316e+00 -4.572440683841705322e-01 8.619535565376281738e-01 2.190068215131759644e-01
1.116469001770019531e+01 1.934068298339843750e+01 7.252050399780273438e+00 -8.093137741088867188e-01 -2.892606705427169800e-02 5.866639018058776855e-01
-1.298946952819824219e+01 -1.122217464447021484e+01 7.983630299568176270e-01 2.951542437076568604e-01 -6.718034856021404266e-03 9.554259777069091797e-01
1.946730494499206543e+00 -8.152318954467773438e+00 -2.050394058227539062e+00 -1.161498874425888062e-01 -5.034773945808410645e-01 8.561657071113586426e-01
5.105538368225097656e+00 -6.774695396423339844e+00 9.416707754135131836e-01 -8.905110359191894531e-01 -6.985811889171600342e-02 -4.495663642883300781e-01
-1.001453304290771484e+01 -2.656469726562500000e+01 -2.569682359695434570e+00 -4.173318296670913696e-02 1.611012406647205353e-02 9.989988803863525391e-01
2.131779670715332031e+00 1.505843734741210938e+01 1.024215459823608398e+00 -9.938663840293884277e-01 -1.096331402659416199e-01 -1.449854113161563873e-02
2.135298252105712891e+00 1.970588111877441406e+01 8.447815775871276855e-01 -8.849629014730453491e-02 -3.767164051532745361e-01 9.220917224884033203e-01
1.186116576194763184e+00 2.299470329284667969e+01 7.555236816406250000e-01 -2.609690837562084198e-02 -2.055621147155761719e-02 9.994480609893798828e-01
-1.803996467590332031e+01 -1.680509185791015625e+01 2.720963716506958008e+00 -5.047218799591064453e-01 8.614347577095031738e-01 -5.644406005740165710e-02
-7.468558788299560547e+00 8.915990829467773438e+00 3.727983236312866211e+00 8.977788686752319336e-01 -4.347817301750183105e-01 -7.041296362876892090e-02
9.622010231018066406e+00 1.044334697723388672e+01 3.630264520645141602e+00 3.293840587139129639e-02 -1.850764080882072449e-02 -9.992859959602355957e-01
2.477468490600585938e+00 2.025031661987304688e+01 1.135253787040710449e+00 1.425334811210632324e-01 9.831800311803817749e-02 9.848948121070861816e-01
-7.055140495300292969e+00 3.716911077499389648e+00 -6.428670883178710938e-02 9.377456903457641602e-01 -3.428549468517303467e-01 -5.552903190255165100e-02
-7.465671062469482422e+00 1.635505914688110352e+00 -2.968764603137969971e-01 9.833872318267822266e-01 -1.792325824499130249e-01 2.872638963162899017e-02
-5.648993968963623047e+00 1.097569847106933594e+01 2.770115613937377930e+00 8.896969556808471680e-01 2.469397783279418945e-01 3.840053379535675049e-01
1.076804637908935547e+01 1.951756477355957031e+01 3.330951452255249023e+00 -9.720087647438049316e-01 9.783462435007095337e-02 2.136055082082748413e-01
7.767853260040283203e+00 9.527083396911621094e+00 9.357871413230895996e-01 -9.459224939346313477e-01 3.120395541191101074e-01 8.866789937019348145e-02
-1.409288692474365234e+01 -1.031274509429931641e+01 9.083845019340515137e-01 8.392827510833740234e-01 -4.024492204189300537e-01 3.655668497085571289e-01
4.807393550872802734e+00 -1.219236660003662109e+01 1.279158592224121094e-01 -9.662528038024902344e-01 -2.536195218563079834e-01 4.508442059159278870e-02
4.514451026916503906e+00 7.423192977905273438e+00 -4.629258513450622559e-01 -1.849150508642196655e-01 -1.500060409307479858e-01 9.712386727333068848e-01
-8.761470794677734375e+00 -8.823722839355468750e+00 2.335575580596923828e+00 9.660464525222778320e-01 2.134597450494766235e-01 -1.455649882555007935e-01
-7.467262268066406250e+00 -1.067109966278076172e+01 -2.779308795928955078e+00 6.817853450775146484e-02 -4.288855567574501038e-02 9.967508316040039062e-01
4.763451576232910156e+00 -8.126218795776367188e+00 3.114282846450805664e+00 -9.936386942863464355e-01 1.126128435134887695e-01 -7.347279461100697517e-04
-1.427525234222412109e+01 -1.814949035644531250e+01 4.570443630218505859e-01 -6.238563358783721924e-02 -2.238669991493225098e-01 9.726210236549377441e-01
-9.693508148193359375e+00 -8.936050415039062500e+00 1.859302759170532227e+00 8.174107074737548828e-01 2.432286143302917480e-01 5.221872925758361816e-01
-1.254446220397949219e+01 -1.479731559753417969e+01 3.020036935806274414e+00 4.108754396438598633e-01 5.419919490814208984e-01 -7.330935001373291016e-01
-1.017300319671630859e+01 -2.809201812744140625e+01 -2.561856746673583984e+00 -2.755675092339515686e-02 -1.518135075457394123e-03 9.996190667152404785e-01
-2.924619913101196289e+00 -8.058148384094238281e+00 -2.412122249603271484e+00 -7.374559342861175537e-02 -3.337346762418746948e-02 9.967185258865356445e-01
4.575848579406738281e+00 -1.757734680175781250e+01 3.353086709976196289e+00 -9.669743180274963379e-01 -1.210813373327255249e-01 2.242764681577682495e-01
5.955127716064453125e+00 2.486694812774658203e+00 4.331403255462646484e+00 -8.318699598312377930e-01 5.534958839416503906e-01 -4.043126851320266724e-02
-5.658624172210693359e+00 1.018518257141113281e+01 2.340336561203002930e+00 8.210567831993103027e-01 -5.309069156646728516e-01 2.097705304622650146e-01
-1.337690114974975586e+00 1.889181518554687500e+01 7.372986674308776855e-01 -1.273749116808176041e-02 -5.987986549735069275e-02 9.981243014335632324e-01
-7.638821125030517578e+00 -1.802041888236999512e+00 -2.176215887069702148e+00 1.517813354730606079e-01 -8.311282843351364136e-02 9.849135279655456543e-01
-9.268819808959960938e+00 -7.178194522857666016e+00 -1.256434082984924316e+00 9.829694628715515137e-01 -1.826162338256835938e-01 2.055215276777744293e-02
6.883477210998535156e+00 2.059679412841796875e+01 1.002143859863281250e+00 8.684176206588745117e-02 5.700407922267913818e-02 9.945898652076721191e-01
7.315350532531738281e+00 2.178859519958496094e+01 1.040493965148925781e+00 -1.410451810806989670e-02 -4.232415184378623962e-02 9.990043640136718750e-01
2.927704334259033203e+00 8.842855453491210938e+00 -2.868108153343200684e-01 -1.340664364397525787e-02 -3.209918364882469177e-02 9.993947744369506836e-01
2.770722389221191406e+00 -2.138166189193725586e+00 -1.621700286865234375e+00 -8.815797418355941772e-02 -1.359591484069824219e-01 9.867843389511108398e-01
4.109189033508300781e+00 1.981620216369628906e+01 9.946888089179992676e-01 -8.380332961678504944e-03 -5.723962932825088501e-02 9.983252882957458496e-01
4.821223258972167969e+00 -7.383879661560058594e+00 3.933347940444946289e+00 -9.280077219009399414e-01 -3.344941437244415283e-01 -1.640590876340866089e-01
7.453526973724365234e+00 -2.238115882873535156e+01 2.891007900238037109e+00 -8.720322847366333008e-01 -4.533708691596984863e-01 1.844303309917449951e-01
5.964306831359863281e+00 2.477382659912109375e+00 4.119780540466308594e+00 -9.104868173599243164e-01 3.994955420494079590e-01 -1.068504601716995239e-01
2.105474710464477539e+00 1.502444458007812500e+01 1.557188391685485840e+00 -9.831086397171020508e-01 1.734708547592163086e-01 -5.835509300231933594e-02
-3.951166868209838867e+00 2.146015405654907227e+00 -1.711836338043212891e+00 -9.751018881797790527e-02 -4.963181167840957642e-02 9.939962029457092285e-01
4.436766356229782104e-02 -1.169882297515869141e+01 -2.404254198074340820e+00 -3.032654896378517151e-02 -3.223849087953567505e-02 9.990199804306030273e-01
-1.283059024810791016e+01 -1.541647529602050781e+01 3.430481433868408203e+00 2.324355840682983398e-01 9.331385493278503418e-01 -2.742737829685211182e-01
-2.891269922256469727e+00 1.792635536193847656e+01 1.117393612861633301e+00 9.928917288780212402e-01 -1.134191974997520447e-01 3.608464822173118591e-02
-1.207094573974609375e+01 -1.533084774017333984e+01 -2.458252191543579102e+00 8.266637921333312988e-01 -5.610888004302978516e-01 4.250114783644676208e-02
1.211264371871948242e+00 1.035836982727050781e+01 -8.930414170026779175e-02 -5.012249350547790527e-01 -7.531214356422424316e-01 4.261239767074584961e-01
8.559932708740234375e+00 7.166910171508789062e+00 1.732885837554931641e+00 -9.656918644905090332e-01 2.459977567195892334e-01 -8.321277052164077759e-02
-8.218390464782714844e+00 -1.773865580558776855e+00 -2.679226100444793701e-01 8.773914575576782227e-01 -4.728139042854309082e-01 8.143248409032821655e-02
1.073629283905029297e+01 1.972852325439453125e+01 3.930680990219116211e+00 -9.264715313911437988e-01 2.167429625988006592e-01 -3.076897263526916504e-01
9.436301231384277344e+00 1.099549865722656250e+01 3.610756635665893555e+00 4.708077013492584229e-01 4.480251371860504150e-01 -7.600089311599731445e-01
-1.173782444000244141e+01 -9.501790046691894531e+00 1.382094144821166992e+00 6.410503387451171875e-01 7.590903639793395996e-01 1.132974326610565186e-01
-2.777126073837280273e+00 -6.681706309318542480e-01 -1.271798610687255859e+00 -1.307374387979507446e-01 9.080187678337097168e-01 3.980070650577545166e-01
-3.624788522720336914e+00 -1.865126371383666992e+00 -2.052222728729248047e+00 -8.466356247663497925e-02 -2.694528549909591675e-02 9.960451722145080566e-01
-1.040186309814453125e+01 -1.237566471099853516e+01 2.127924919128417969e+00 9.609252214431762695e-01 -2.210546284914016724e-01 1.666061580181121826e-01
-2.536935806274414062e+00 -9.877047538757324219e+00 -2.442853927612304688e+00 -2.322963811457157135e-02 -4.007164016366004944e-02 9.989267587661743164e-01
-3.555761337280273438e+00 -6.422160148620605469e+00 -1.671486735343933105e+00 8.176483511924743652e-01 5.695593357086181641e-01 -8.398450165987014771e-02
-4.243191719055175781e+00 -1.786793708801269531e+01 -2.721194744110107422e+00 -4.617180675268173218e-02 -3.125215694308280945e-02 9.984444975852966309e-01
-6.968866348266601562e+00 -2.442103958129882812e+01 -2.608477354049682617e+00 -3.551952168345451355e-02 -4.528794437646865845e-03 9.993587136268615723e-01
-8.877674937248229980e-01 -1.995525932312011719e+01 -2.556150913238525391e+00 -8.802216500043869019e-03 1.520906984806060791e-01 9.883273243904113770e-01
4.900565624237060547e+00 2.001174163818359375e+01 9.882942438125610352e-01 -5.553164705634117126e-02 -3.573307767510414124e-02 9.978173375129699707e-01
-1.065087509155273438e+01 -1.272111129760742188e+01 -1.659009099006652832e+00 9.145269989967346191e-01 -4.043020606040954590e-01 1.342460606247186661e-02
5.038985013961791992e-01 -1.651785850524902344e+01 -2.542737960815429688e+00 -2.813665568828582764e-02 -2.082615531980991364e-02 9.993870854377746582e-01
-1.250794982910156250e+01 2.490623712539672852e+00 5.387587547302246094e+00 -3.387703001499176025e-01 -6.817334890365600586e-02 -9.383960366249084473e-01
-9.784736633300781250e+00 -2.853255033493041992e+00 1.228152036666870117e+00 4.015646278858184814e-01 -6.326875686645507812e-01 6.621572971343994141e-01
1.389182925224304199e+00 1.193962287902832031e+01 6.995462179183959961e-01 -3.612727671861648560e-02 -2.652274370193481445e-01 9.635087847709655762e-01
4.162805080413818359e+00 -1.258480644226074219e+01 2.324101924896240234e+00 -8.366411328315734863e-01 5.422005653381347656e-01 -7.778245955705642700e-02
1.652605772018432617e+00 -5.964558124542236328e+00 -2.094409465789794922e+00 -2.379946410655975342e-01 -1.705939695239067078e-02 9.711166620254516602e-01
5.882187366485595703e+00 2.988806962966918945e+00 -6.645522713661193848e-01 -3.947083353996276855e-01 -5.703105032444000244e-02 9.170348048210144043e-01
-3.457878589630126953e+00 -1.727836608886718750e+01 -2.679809093475341797e+00 -1.246389001607894897e-02 -2.627431787550449371e-02 9.995770454406738281e-01
-1.141490077972412109e+01 2.286903953552246094e+01 7.831604003906250000e+00 -2.197192013263702393e-01 6.706704497337341309e-01 -7.084663510322570801e-01
7.506736278533935547e+00 1.151455879211425781e+01 1.030168771743774414e+00 3.088468909263610840e-01 -1.717656701803207397e-01 9.354732036590576172e-01
5.683421134948730469e+00 1.223481297492980957e+00 4.336858749389648438e+00 -9.994071722030639648e-01 2.030847407877445221e-02 2.779966033995151520e-02
-1.683362197875976562e+01 -1.953947067260742188e+01 -3.025073289871215820e+00 -5.764817595481872559e-01 7.538760304450988770e-01 3.151819407939910889e-01
-1.260429501533508301e+00 6.497317314147949219e+00 -7.920288443565368652e-01 -6.242150440812110901e-02 -2.773732505738735199e-02 9.976643919944763184e-01
-3.594301462173461914e+00 -6.469061374664306641e+00 -1.950359582901000977e+00 9.797410964965820312e-01 -1.302377432584762573e-01 1.521364450454711914e-01
9.061905741691589355e-01 5.531255722045898438e+00 -7.412117719650268555e-01 -1.187085285782814026e-01 -1.432480663061141968e-01 9.825417399406433105e-01
7.814302921295166016e+00 1.054629898071289062e+01 4.741508960723876953e+00 -7.675909399986267090e-01 6.332457065582275391e-01 9.901521354913711548e-02
5.565782546997070312e+00 6.001031875610351562e+00 -3.653154373168945312e-01 -1.000543162226676941e-01 -9.203539229929447174e-03 9.949393868446350098e-01
1.468821406364440918e+00 -8.108735084533691406e+00 -2.125568389892578125e+00 -2.829732000827789307e-01 3.303136676549911499e-02 9.585588574409484863e-01
-1.447717285156250000e+01 -1.358046245574951172e+01 2.522592782974243164e+00 4.855847358703613281e-01 4.092566967010498047e-01 -7.724742293357849121e-01
1.358629989624023438e+01 1.366989898681640625e+01 3.821202278137207031e+00 1.736585982143878937e-02 6.434587389230728149e-02 -9.977765679359436035e-01
-6.931993961334228516e-01 1.465194702148437500e+01 4.607488512992858887e-01 -1.082177981734275818e-01 -1.701812744140625000e-01 9.794525504112243652e-01
7.546999931335449219e+00 -2.263525772094726562e+01 4.725131034851074219e+00 -9.243456721305847168e-01 -3.735641837120056152e-01 -7.768462598323822021e-02
9.381748199462890625e+00 2.303786277770996094e+01 1.179234743118286133e+00 -1.318947523832321167e-01 1.769611686468124390e-01 9.753401875495910645e-01
4.541246414184570312e+00 1.183329486846923828e+01 7.245368957519531250e-01 -2.365971170365810394e-02 -3.827119767665863037e-01 9.235646724700927734e-01
5.299870014190673828e+00 -7.408969879150390625e+00 8.554018735885620117e-01 1.644176244735717773e-02 -3.307996988296508789e-01 9.435577392578125000e-01
-1.183063793182373047e+01 -1.413882827758789062e+01 2.756644248962402344e+00 8.839656114578247070e-01 4.428070485591888428e-01 1.500888764858245850e-01
-5.605889797210693359e+00 -1.179456233978271484e+01 -1.315698385238647461e+00 1.865939497947692871e-01 -1.383529752492904663e-01 9.726464748382568359e-01
-9.455038070678710938e+00 -7.036037921905517578e+00 -4.986873269081115723e-02 7.510938048362731934e-01 -2.253681421279907227e-02 6.598107218742370605e-01
5.034240245819091797e+00 -5.375658035278320312e+00 -8.576242923736572266e-01 -9.938776493072509766e-01 1.070182994008064270e-01 -2.746513113379478455e-02
-8.379099845886230469e+00 1.541928672790527344e+01 2.735033750534057617e+00 -6.573733687400817871e-02 6.548754572868347168e-01 -7.528723478317260742e-01
-2.748768806457519531e+00 -1.148016262054443359e+01 -2.503806114196777344e+00 -2.433472312986850739e-02 -7.528225891292095184e-03 9.996755123138427734e-01
-4.227027416229248047e+00 -8.715483665466308594e+00 -2.528232336044311523e+00 -8.181150257587432861e-02 -2.305554971098899841e-02 9.963811039924621582e-01
-8.652176856994628906e+00 -6.345515251159667969e+00 9.465284943580627441e-01 7.842511534690856934e-01 -3.616109490394592285e-01 -5.041702389717102051e-01
4.892433166503906250e+00 -8.628246307373046875e+00 -8.432430028915405273e-01 -8.762314319610595703e-01 4.788253903388977051e-01 5.426490306854248047e-02
4.875693321228027344e+00 -1.742876815795898438e+01 5.428138375282287598e-01 -3.413829579949378967e-02 9.972860813140869141e-01 6.523095071315765381e-02
6.683392524719238281e+00 4.798870563507080078e+00 1.317142486572265625e+00 -9.920094609260559082e-01 1.247219368815422058e-01 1.901803910732269287e-02
-5.082905769348144531e+00 -1.984528160095214844e+01 -2.710939645767211914e+00 -4.301389679312705994e-02 -6.767599377781152725e-03 9.990515708923339844e-01
8.296809196472167969e+00 7.030230998992919922e+00 5.729255676269531250e+00 5.194978788495063782e-03 3.013506531715393066e-01 -9.534992575645446777e-01
-1.179339122772216797e+01 -1.358514499664306641e+01 2.927776336669921875e+00 8.584913015365600586e-01 -5.125867128372192383e-01 -1.573245972394943237e-02
4.546638488769531250e+00 -1.858253479003906250e+01 5.052886009216308594e+00 -8.486712574958801270e-01 -5.056050419807434082e-01 -1.553082019090652466e-01
4.826130867004394531e+00 -8.102849006652832031e+00 3.887558460235595703e+00 -9.817305207252502441e-01 -1.557915657758712769e-01 -1.092438697814941406e-01
-1.332774609327316284e-01 -8.302313804626464844e+00 -2.303032398223876953e+00 -4.708640277385711670e-02 -3.891424462199211121e-02 9.981325268745422363e-01
-1.689857864379882812e+01 -1.971056747436523438e+01 -4.808018207550048828e-01 5.328037142753601074e-01 1.578636020421981812e-01 8.313839435577392578e-01
-1.812481135129928589e-01 -1.150945377349853516e+01 -2.404913663864135742e+00 -3.604329749941825867e-02 -3.825354203581809998e-02 9.986178278923034668e-01
6.748826026916503906e+00 4.411696910858154297e+00 4.918305873870849609e+00 6.659793257713317871e-01 -3.022001385688781738e-01 -6.820166110992431641e-01
6.211616516113281250e+00 -2.988559961318969727e+00 1.182698011398315430e+00 -1.571628302335739136e-01 3.975259363651275635e-01 9.040315151214599609e-01
7.908157825469970703e+00 -2.182761383056640625e+01 7.181529998779296875e+00 -9.812822341918945312e-01 1.524442881345748901e-01 -1.176688820123672485e-01
-3.348237037658691406e+00 1.736979866027832031e+01 3.164349317550659180e+00 6.440374851226806641e-01 -7.569760680198669434e-01 1.104669794440269470e-01
-1.608329057693481445e+00 -2.750615882873535156e+01 -2.431298494338989258e+00 -4.222850129008293152e-02 2.302424609661102295e-02 9.988426566123962402e-01
-1.005090999603271484e+01 -1.470619201660156250e+01 -2.873022079467773438e+00 3.465439006686210632e-02 -6.457161158323287964e-02 9.973111748695373535e-01
3.527506113052368164e+00 9.816943168640136719e+00 -2.495913952589035034e-01 1.564081013202667236e-02 -1.478749960660934448e-01 9.888823628425598145e-01
1.703798770904541016e+00 -7.890034675598144531e+00 -2.039549350738525391e+00 -5.450176596641540527e-01 7.638268917798995972e-02 8.349379897117614746e-01
-2.895931959152221680e+00 1.126793575286865234e+01 -5.266234278678894043e-01 -4.404346942901611328e-01 -5.042548775672912598e-01 7.427949309349060059e-01
9.328758239746093750e+00 -2.406914710998535156e+01 4.384207725524902344e+00 6.745621562004089355e-01 7.211971282958984375e-01 1.576089113950729370e-01
5.603263854980468750e+00 -4.494579315185546875e+00 -3.611279278993606567e-02 -6.016128063201904297e-01 7.982137203216552734e-01 -3.028049878776073456e-02
4.816536903381347656e+00 -8.578004837036132812e+00 5.404147505760192871e-01 -8.366849422454833984e-01 5.098377466201782227e-01 -2.000593096017837524e-01
-1.410401248931884766e+01 -2.368114852905273438e+01 -1.320404529571533203e+00 -4.769295454025268555e-01 -4.517240822315216064e-01 7.539784908294677734e-01
-9.507857322692871094e+00 3.098038196563720703e+00 3.520903587341308594e+00 9.783307313919067383e-01 2.070483714342117310e-01 -2.479794602550100535e-05
4.986489295959472656e+00 -5.509929180145263672e+00 3.721825599670410156e+00 -8.427425026893615723e-01 -5.369665026664733887e-01 -3.810634464025497437e-02
-5.641916275024414062e+00 -2.864379310607910156e+01 -2.385647058486938477e+00 -3.325127437710762024e-02 7.906888611614704132e-03 9.994157552719116211e-01
-1.176186561584472656e+01 -1.308305072784423828e+01 6.545515060424804688e-01 -2.862324416637420654e-01 -5.934494137763977051e-01 7.522557973861694336e-01
-6.697381019592285156e+00 8.973905563354492188e+00 1.754265904426574707e+00 2.848596274852752686e-01 -2.132310271263122559e-01 9.345520734786987305e-01
5.808948993682861328e+00 3.579216897487640381e-01 1.375957965850830078e+00 -9.174924492835998535e-01 3.996212780475616455e-02 -3.957406282424926758e-01
-1.372385883331298828e+01 -1.185743808746337891e+01 4.876493930816650391e+00 3.938764333724975586e-01 8.061470389366149902e-01 -4.415747821331024170e-01
6.414659500122070312e+00 1.520364284515380859e+01 8.903772234916687012e-01 -2.695408649742603302e-02 -1.060662940144538879e-01 9.939936995506286621e-01
-2.516488075256347656e+00 -7.879174232482910156e+00 -2.377916812896728516e+00 -3.031426668167114258e-02 -5.931056663393974304e-02 9.977791905403137207e-01
2.726564407348632812e+00 -1.770856976509094238e+00 -1.624631166458129883e+00 2.090470343828201294e-01 -4.633747935295104980e-01 8.611522316932678223e-01
-5.609545111656188965e-01 1.082145786285400391e+01 3.510724753141403198e-02 -3.879557847976684570e-01 -8.279107809066772461e-01 4.050357937812805176e-01
-1.507150936126708984e+01 -1.835476684570312500e+01 -1.062674447894096375e-02 8.393275737762451172e-01 5.358548164367675781e-01 -9.159076958894729614e-02
-1.232818222045898438e+01 -1.200225353240966797e+01 1.880448937416076660e+00 2.639252543449401855e-01 9.627021551132202148e-01 -5.956538394093513489e-02
-1.020993232727050781e+01 -1.050551509857177734e+01 1.775313377380371094e+00 -1.113399192690849304e-01 2.660300210118293762e-02 9.934262633323669434e-01
4.583576679229736328e+00 -9.379046440124511719e+00 -8.666241765022277832e-01 -9.976962804794311523e-01 6.779570132493972778e-02 -2.418154152110219002e-03
-7.236452102661132812e+00 2.458302497863769531e+00 3.947687149047851562e+00 6.067866683006286621e-01 -7.948454618453979492e-01 5.534368101507425308e-03
7.495907306671142578e+00 2.237234878540039062e+01 1.083868622779846191e+00 -7.528419606387615204e-03 -5.237226188182830811e-02 9.985992312431335449e-01
9.316144943237304688e+00 1.257053661346435547e+01 3.935928344726562500e+00 -9.900218844413757324e-01 1.406031101942062378e-01 -9.351749904453754425e-03
-2.143955039978027344e+01 -1.390235042572021484e+01 1.547399520874023438e+00 5.105559229850769043e-01 8.522717952728271484e-01 -1.138660386204719543e-01
-6.847934722900390625e+00 4.361516952514648438e+00 -2.440428733825683594e-01 9.789828062057495117e-01 -2.028787583112716675e-01 2.080650255084037781e-02
9.556508064270019531e+00 1.333550071716308594e+01 2.938308000564575195e+00 -9.804903864860534668e-01 1.208159998059272766e-01 1.550552248954772949e-01
1.608635783195495605e+00 1.822756576538085938e+01 8.322212100028991699e-01 -9.860298037528991699e-02 -5.370386689901351929e-02 9.936766624450683594e-01
-1.529556941986083984e+01 -2.257339286804199219e+01 -2.696643352508544922e+00 1.388308107852935791e-01 -2.318230457603931427e-02 9.900447130203247070e-01
-1.954877614974975586e+00 -1.069468307495117188e+01 -2.460865020751953125e+00 -6.268189102411270142e-02 -3.280023112893104553e-02 9.974943995475769043e-01
-9.379193305969238281e+00 -1.098502826690673828e+01 9.443180561065673828e-01 8.311250209808349609e-01 5.064019560813903809e-01 2.297569364309310913e-01
1.941845655441284180e+00 1.397382545471191406e+01 6.290110349655151367e-01 -4.429871737957000732e-01 -8.825573325157165527e-01 1.576543003320693970e-01
-3.742708683013916016e+00 -5.355648040771484375e+00 -3.163185417652130127e-01 6.142564862966537476e-02 -2.651931047439575195e-01 9.622367024421691895e-01
-4.707815170288085938e+00 1.130681037902832031e+01 -5.123448371887207031e-01 2.267913967370986938e-01 -3.775800764560699463e-01 8.977744579315185547e-01
-1.074014282226562500e+01 -2.458475494384765625e+01 -2.638136386871337891e+00 -3.482335433363914490e-02 6.621649116277694702e-02 9.971974492073059082e-01
9.791061878204345703e-01 -9.201372861862182617e-01 -1.528183817863464355e+00 -2.765293605625629425e-02 -3.447327390313148499e-02 9.990229606628417969e-01
-2.038246154785156250e+00 6.087632179260253906e+00 -1.170985102653503418e+00 -4.424647688865661621e-01 -5.841487050056457520e-01 6.804375052452087402e-01
-9.426180720329284668e-01 -8.504837989807128906e+00 -2.344904184341430664e+00 -6.484382599592208862e-02 -2.568711526691913605e-02 9.975647330284118652e-01
6.622395992279052734e+00 1.659458541870117188e+01 9.249356389045715332e-01 -9.936687536537647247e-03 -6.274846941232681274e-02 9.979798793792724609e-01
5.606534481048583984e+00 1.480578231811523438e+01 9.089550375938415527e-01 -2.278880216181278229e-02 -4.108973219990730286e-02 9.988955259323120117e-01
-1.216414737701416016e+01 -1.538826656341552734e+01 -1.297311782836914062e+00 8.042201995849609375e-01 -5.933394432067871094e-01 3.432434424757957458e-02
1.397106885910034180e+00 -3.196395933628082275e-01 -1.511128783226013184e+00 -3.592889010906219482e-02 -1.886140368878841400e-02 9.991763234138488770e-01
-2.577709674835205078e+00 1.165026378631591797e+01 -1.319134384393692017e-01 -8.477845788002014160e-02 -8.640609681606292725e-02 9.926462769508361816e-01
-9.357910156250000000e+00 -2.618877792358398438e+01 -2.547214031219482422e+00 -4.475963860750198364e-02 1.188620924949645996e-02 9.989270567893981934e-01
-8.422892570495605469e+00 -2.976886272430419922e+00 -1.681146144866943359e+00 9.772359132766723633e-01 -2.119915634393692017e-01 8.340201340615749359e-03
-1.420908737182617188e+01 -1.759282493591308594e+01 -1.262429118156433105e+00 7.507822513580322266e-01 -6.350686550140380859e-01 -1.816969513893127441e-01
-9.578876495361328125e+00 -9.383351325988769531e+00 -6.539306640625000000e-01 9.861225485801696777e-01 -1.171419695019721985e-01 -1.176441088318824768e-01
7.618965148925781250e+00 9.228107452392578125e+00 4.921657562255859375e+00 -9.987869858741760254e-01 4.665772616863250732e-02 -1.573726534843444824e-02
6.277237415313720703e+00 -2.156056213378906250e+01 7.190424799919128418e-01 -7.847009897232055664e-01 -6.198730468750000000e-01 1.346638193354010582e-03
-2.458856821060180664e+00 -4.284857749938964844e+00 -2.065026760101318359e+00 1.922822743654251099e-01 7.142697572708129883e-01 -6.729385256767272949e-01
9.312191009521484375e+00 1.831054878234863281e+01 1.176189899444580078e+00 -7.974659651517868042e-02 -3.978792577981948853e-02 9.960207939147949219e-01
5.407553195953369141e+00 -7.744191646575927734e+00 4.197161674499511719e+00 1.999363154172897339e-01 3.432131186127662659e-02 -9.792075753211975098e-01
6.788325309753417969e+00 5.246982574462890625e+00 2.167322158813476562e+00 -9.876199960708618164e-01 1.485291272401809692e-01 -5.045606568455696106e-02
-1.128603339195251465e+00 7.499826431274414062e+00 -7.592830061912536621e-01 -6.832741200923919678e-02 -2.510618790984153748e-02 9.973469972610473633e-01
1.110603904724121094e+01 2.012350654602050781e+01 2.926952362060546875e+00 -9.875320196151733398e-01 1.320234537124633789e-01 8.573418855667114258e-02
2.912269353866577148e+00 2.083595657348632812e+01 2.739905834197998047e+00 -9.362332224845886230e-01 2.670497000217437744e-01 -2.283676266670227051e-01
4.941923618316650391e+00 -6.403173446655273438e+00 3.993307352066040039e+00 -9.298551678657531738e-01 -9.135498106479644775e-02 -3.564037978649139404e-01
-1.346508115530014038e-01 3.486051082611083984e+00 -1.170836806297302246e+00 2.126722410321235657e-02 -2.770172804594039917e-02 9.993899464607238770e-01
9.358701705932617188e+00 1.315269947052001953e+01 4.137379169464111328e+00 -9.895809888839721680e-01 1.429348886013031006e-01 -1.729371398687362671e-02
7.089631557464599609e+00 -2.934410810470581055e+00 1.111777305603027344e+00 -4.091566801071166992e-02 8.535227179527282715e-01 5.194467306137084961e-01
7.007290363311767578e+00 -3.243209123611450195e+00 1.306017339229583740e-01 -9.892900586128234863e-01 1.424948573112487793e-01 -3.162837401032447815e-02
-1.012543201446533203e+01 -1.426168084144592285e+00 2.107951164245605469e+00 9.843556880950927734e-01 -1.718641370534896851e-01 3.881531953811645508e-02
-9.072337746620178223e-01 1.828807449340820312e+01 7.020375132560729980e-01 5.234549939632415771e-02 3.078026883304119110e-02 9.981545805931091309e-01
-3.974793195724487305e+00 1.701505470275878906e+01 3.988206863403320312e+00 5.206750035285949707e-01 -8.529435396194458008e-01 -3.721351176500320435e-02
-5.580217242240905762e-01 2.498484849929809570e+00 -1.197668194770812988e+00 -1.122109591960906982e-01 -1.884261071681976318e-01 9.756558537483215332e-01
6.281232357025146484e+00 3.371009349822998047e+00 -2.579501271247863770e-01 -9.474871158599853516e-01 3.044946789741516113e-01 9.773004800081253052e-02
-1.523058414459228516e+01 -1.796271133422851562e+01 1.847401261329650879e-02 8.580182194709777832e-01 3.074843287467956543e-01 4.114099442958831787e-01
-1.367230319976806641e+01 -1.796442031860351562e+01 1.136478900909423828e+00 8.443807363510131836e-01 -5.114873647689819336e-01 -1.593796610832214355e-01
9.045590400695800781e+00 -2.367090988159179688e+01 6.459613323211669922e+00 6.177546977996826172e-01 7.839713096618652344e-01 -6.138487160205841064e-02
-1.007364559173583984e+01 -9.929902076721191406e+00 9.903649091720581055e-01 -1.708413362503051758e-01 -8.559408783912658691e-02 9.815737009048461914e-01
1.014837074279785156e+01 1.589545249938964844e+01 2.340109348297119141e+00 -9.949908256530761719e-01 9.506513178348541260e-02 -3.091670759022235870e-02
-1.709338951110839844e+01 -2.026307106018066406e+01 1.220793053507804871e-01 -1.673338264226913452e-01 9.238746166229248047e-01 -3.441731035709381104e-01
1.265251827239990234e+01 1.444687271118164062e+01 3.819280147552490234e+00 3.794660791754722595e-02 -1.140308454632759094e-01 -9.927522540092468262e-01
1.073427295684814453e+01 1.897040748596191406e+01 2.748232364654541016e+00 -9.902946352958679199e-01 1.099021136760711670e-01 8.507706969976425171e-02
-6.339354038238525391e+00 -2.289179611206054688e+01 -2.690924882888793945e+00 6.663963943719863892e-02 3.574005067348480225e-01 9.315707087516784668e-01
-8.279258728027343750e+00 -2.226535224914550781e+01 -2.845805168151855469e+00 3.647643327713012695e-02 3.467097282409667969e-01 9.372629523277282715e-01
-4.782476425170898438e+00 5.374050617218017578e+00 -1.306381583213806152e+00 1.108592152595520020e-01 -2.895046211779117584e-02 9.934143424034118652e-01
2.041231632232666016e+00 3.432374000549316406e+00 -1.128149390220642090e+00 -9.061344899237155914e-03 -3.308359906077384949e-02 9.994115233421325684e-01
-1.384389877319335938e+01 -1.733394432067871094e+01 2.914175033569335938e+00 -6.785085797309875488e-01 6.928203701972961426e-01 -2.441844791173934937e-01
-3.844171524047851562e+00 -4.844208717346191406e+00 -2.393397569656372070e+00 7.174145430326461792e-02 3.960650563240051270e-01 9.154155254364013672e-01
-1.940016269683837891e+00 -1.088367462158203125e+01 -2.466508626937866211e+00 -6.021557003259658813e-02 -3.881026804447174072e-02 9.974306225776672363e-01
-7.299933910369873047e+00 -2.179726982116699219e+01 -2.809267997741699219e+00 -4.165068641304969788e-02 -8.822981035336852074e-04 9.991318583488464355e-01
4.685190200805664062e+00 -1.797018432617187500e+01 2.537518262863159180e+00 -9.915791749954223633e-01 -1.248442530632019043e-01 -3.441950306296348572e-02
-1.589234256744384766e+01 -1.893631553649902344e+01 -1.841302156448364258e+00 -4.783768355846405029e-01 8.757120370864868164e-01 6.545235961675643921e-02
-2.181679487228393555e+00 2.515496253967285156e+00 -1.551965832710266113e+00 -1.835754066705703735e-01 -1.307736486196517944e-01 9.742680788040161133e-01
9.768985748291015625e+00 2.005478096008300781e+01 1.211121201515197754e+00 -5.058522522449493408e-02 4.646390303969383240e-02 9.976383447647094727e-01
4.020526707172393799e-01 -3.124375641345977783e-01 -1.537546277046203613e+00 -4.791792854666709900e-02 -2.101812511682510376e-02 9.986301064491271973e-01
-2.592733383178710938e+00 2.706106662750244141e+00 -1.569866776466369629e+00 -5.886961519718170166e-02 -6.482353210449218750e-01 7.591609358787536621e-01
3.211498260498046875e+00 -1.117612075805664062e+01 -2.021460294723510742e+00 -1.020209118723869324e-01 -2.948429435491561890e-02 9.943451881408691406e-01
3.841487467288970947e-01 -1.309132277965545654e-01 -1.533131957054138184e+00 -4.689402133226394653e-02 -2.320685796439647675e-02 9.986302852630615234e-01
3.213232755661010742e+00 8.625946640968322754e-01 -1.253350853919982910e+00 -9.795606881380081177e-02 -1.678016968071460724e-02 9.950492382049560547e-01
7.834999561309814453e+00 -1.191662120819091797e+01 8.958136439323425293e-01 1.291652917861938477e-01 -1.629702001810073853e-01 9.781395792961120605e-01
5.642227649688720703e+00 -2.184426546096801758e+00 7.317457199096679688e-01 -9.408887028694152832e-01 -2.992965877056121826e-01 -1.585874110460281372e-01
-9.349206924438476562e+00 -7.775705814361572266e+00 -2.268254995346069336e+00 9.434363245964050293e-01 -2.653908431529998779e-01 1.987350285053253174e-01
-1.138082599639892578e+01 -2.738578224182128906e+01 -2.458847045898437500e+00 4.860886558890342712e-02 8.513288199901580811e-02 9.951831698417663574e-01
9.983452796936035156e+00 1.633677291870117188e+01 6.133522510528564453e+00 -9.762213230133056641e-01 1.856365203857421875e-01 -1.119417846202850342e-01
1.063267803192138672e+01 1.951865959167480469e+01 4.936526298522949219e+00 -9.703525304794311523e-01 2.369534075260162354e-01 -4.763402789831161499e-02
7.074674606323242188e+00 1.958613395690917969e+01 1.011325478553771973e+00 -4.063558299094438553e-03 -5.343194678425788879e-02 9.985632300376892090e-01
-2.718386650085449219e+00 -2.047911071777343750e+01 -2.643861770629882812e+00 -6.006022542715072632e-02 -1.836962066590785980e-02 9.980257153511047363e-01
-9.397951126098632812e+00 2.623049497604370117e+00 3.506750822067260742e+00 9.821984767913818359e-01 1.804814338684082031e-01 5.208218842744827271e-02
3.198561370372772217e-01 -5.525805473327636719e+00 -2.194576501846313477e+00 -4.405959323048591614e-02 -2.892769128084182739e-02 9.986100196838378906e-01
4.310811042785644531e+00 2.360947799682617188e+01 1.085197448730468750e+00 -7.099938392639160156e-02 -2.002594619989395142e-02 9.972752928733825684e-01
-9.656424522399902344e+00 -3.164598703384399414e+00 3.542533874511718750e+00 7.396146059036254883e-01 -2.559076547622680664e-01 6.224801540374755859e-01
-8.223920822143554688e+00 -1.437535858154296875e+01 -2.914186477661132812e+00 1.265110522508621216e-01 -1.007135957479476929e-01 9.868392348289489746e-01
-8.527162551879882812e+00 -3.585025310516357422e+00 4.805052280426025391e-01 4.331154823303222656e-01 -3.554018139839172363e-01 8.283118605613708496e-01
-7.192333698272705078e+00 3.994657993316650391e+00 1.062121748924255371e+00 8.734799027442932129e-01 1.201180368661880493e-01 4.718098044395446777e-01
-8.104086875915527344e+00 1.534538173675537109e+01 9.526492953300476074e-01 -5.687875747680664062e-01 -6.264428496360778809e-01 5.329634547233581543e-01
-6.314747333526611328e+00 1.208279037475585938e+01 3.278996348381042480e-01 7.339552044868469238e-01 6.786051988601684570e-01 2.836847305297851562e-02
6.637437820434570312e+00 1.678233337402343750e+01 9.376086592674255371e-01 -1.430278760381042957e-03 -6.167171150445938110e-02 9.980954527854919434e-01
-2.799463272094726562e+00 1.839423942565917969e+01 1.725069403648376465e+00 9.661470651626586914e-01 -2.530309855937957764e-01 5.035027861595153809e-02
-2.083212614059448242e+00 -1.808934211730957031e+01 -2.664852142333984375e+00 -4.969489201903343201e-02 -2.855993248522281647e-02 9.983560442924499512e-01
-3.396379232406616211e+00 -4.244434356689453125e+00 -2.305490732192993164e+00 -1.990387290716171265e-01 -5.528096556663513184e-01 8.091878890991210938e-01
3.645446538925170898e+00 1.642993354797363281e+01 9.423625469207763672e-01 1.028144266456365585e-02 -9.787345677614212036e-02 9.951457381248474121e-01
-8.890634536743164062e+00 -2.558746814727783203e+00 1.417259335517883301e+00 1.909242123365402222e-01 -3.294426202774047852e-01 9.246704578399658203e-01
3.285926342010498047e+00 1.804082679748535156e+01 9.555570483207702637e-01 -7.284590601921081543e-02 -6.410797685384750366e-02 9.952806830406188965e-01
3.132889986038208008e+00 -2.439472961425781250e+01 -2.394352912902832031e+00 -2.263396829366683960e-01 -2.137958407402038574e-01 9.502955675125122070e-01
7.586235523223876953e+00 7.539912223815917969e+00 1.385768800973892212e-01 -8.891770243644714355e-02 6.855149287730455399e-03 9.960153698921203613e-01
-5.707477331161499023e-01 -4.809029400348663330e-01 -1.565638422966003418e+00 3.075519576668739319e-02 -1.330452412366867065e-02 9.994384050369262695e-01
-1.014713859558105469e+01 -1.416239380836486816e+00 2.262422800064086914e+00 8.360464572906494141e-01 -5.442869663238525391e-01 6.912340223789215088e-02
-9.372939109802246094e+00 1.442948102951049805e+00 2.344640254974365234e+00 9.827089309692382812e-01 -1.798716038465499878e-01 4.392419382929801941e-02
8.640387535095214844e+00 7.548274993896484375e+00 1.542441129684448242e+00 -9.798420071601867676e-01 1.907087266445159912e-01 -5.949635058641433716e-02
-4.052441596984863281e+00 -1.845673370361328125e+01 -2.728137254714965820e+00 -4.192141070961952209e-02 -2.035986259579658508e-02 9.989134669303894043e-01
-9.186080932617187500e+00 -6.767920970916748047e+00 2.673358440399169922e+00 7.832431197166442871e-01 5.475204586982727051e-01 2.945362031459808350e-01
2.002608537673950195e+00 -8.630532264709472656e+00 -6.184900403022766113e-01 1.277554631233215332e-01 9.653666615486145020e-01 2.274769246578216553e-01
-6.429113388061523438e+00 7.337687969207763672e+00 1.429700613021850586e+00 8.314918279647827148e-01 -3.155347704887390137e-01 4.572298228740692139e-01
2.048145771026611328e+00 -2.341349124908447266e+00 -1.804713606834411621e+00 -1.830191016197204590e-01 5.058770254254341125e-02 9.818069338798522949e-01
-3.152139186859130859e+00 -1.026575565338134766e+01 -2.478586912155151367e+00 -4.818212613463401794e-02 -3.603374958038330078e-02 9.981883764266967773e-01
-7.987238407135009766e+00 2.662070846557617188e+01 7.763795852661132812e+00 7.344793081283569336e-01 5.689988732337951660e-01 -3.698383867740631104e-01
-1.259438872337341309e+00 -4.697829246520996094e+00 -2.252567291259765625e+00 -9.826709330081939697e-02 -2.434603273868560791e-01 9.649200439453125000e-01
1.062644672393798828e+01 1.873489952087402344e+01 6.763750076293945312e+00 -8.059964776039123535e-01 4.017449915409088135e-01 4.347075521945953369e-01
6.120696544647216797e+00 9.791095733642578125e+00 3.630384504795074463e-01 -8.644889295101165771e-02 -1.046111434698104858e-02 9.962013363838195801e-01
-1.284435749053955078e+00 -1.930696678161621094e+01 -2.655538082122802734e+00 -3.844593092799186707e-02 -1.048488728702068329e-02 9.992056488990783691e-01
5.129855155944824219e+00 2.241143417358398438e+01 1.058429002761840820e+00 1.496436260640621185e-02 -5.257275700569152832e-02 9.985049962997436523e-01
-5.983811855316162109e+00 1.777841806411743164e+00 -1.730731725692749023e+00 -1.789657026529312134e-02 -3.228544816374778748e-02 9.993184208869934082e-01
8.164852142333984375e+00 1.057054710388183594e+01 1.934817433357238770e+00 -8.442442417144775391e-01 4.373323619365692139e-01 3.098258078098297119e-01
-1.253068208694458008e+00 6.686141967773437500e+00 -7.894338369369506836e-01 -6.420968472957611084e-02 -2.126631885766983032e-02 9.977098107337951660e-01
-4.683646202087402344e+00 3.973624706268310547e+00 -1.399348616600036621e+00 1.800694316625595093e-01 -8.894809335470199585e-02 9.796240329742431641e-01
-5.549361228942871094e+00 1.047515869140625000e+01 7.447675466537475586e-01 9.849960207939147949e-01 -1.683705598115921021e-01 3.787009790539741516e-02
-8.484605789184570312e+00 -8.407074928283691406e+00 1.955124378204345703e+00 1.816447973251342773e-01 -6.217911243438720703e-01 7.618274092674255371e-01
5.338243961334228516e+00 -1.957592391967773438e+01 -8.931226134300231934e-01 6.260117292404174805e-01 7.694439888000488281e-01 -1.267489045858383179e-01
4.428887844085693359e+00 -1.757636070251464844e+01 1.764638185501098633e+00 -9.798091053962707520e-01 -1.623321622610092163e-01 1.167151331901550293e-01
-7.190393924713134766e+00 3.372199535369873047e+00 5.450288653373718262e-01 9.179691076278686523e-01 -2.798883914947509766e-01 2.810609638690948486e-01
-5.548518180847167969e+00 1.437899112701416016e+01 4.494082927703857422e-01 -3.072687983512878418e-01 -2.606945335865020752e-01 9.152181148529052734e-01
-9.757441520690917969e+00 2.717299759387969971e-02 1.335405468940734863e+00 9.721764922142028809e-01 -2.324826866388320923e-01 2.871706150472164154e-02
4.069667339324951172e+00 7.679363250732421875e+00 -2.188679724931716919e-01 -9.285428524017333984e-01 2.069714963436126709e-01 3.081735670566558838e-01
-1.099172687530517578e+01 -1.324827384948730469e+01 1.300753712654113770e+00 -2.073106318712234497e-01 -3.615767359733581543e-01 9.090019464492797852e-01
-1.503151035308837891e+01 -7.975343227386474609e+00 1.319806456565856934e+00 -3.678199648857116699e-01 1.942158192396163940e-01 9.093891978263854980e-01
-1.357173633575439453e+01 -1.801053047180175781e+01 9.620655179023742676e-01 6.738449335098266602e-01 -6.576934456825256348e-01 3.367080986499786377e-01
1.294332742691040039e-01 -4.504775524139404297e+00 -1.939574956893920898e+00 -1.329326182603836060e-01 -2.899343967437744141e-01 9.477694630622863770e-01
1.245100688934326172e+01 1.336132812500000000e+01 3.797087669372558594e+00 3.542844578623771667e-02 3.235334530472755432e-02 -9.988483786582946777e-01
-9.849949836730957031e+00 -9.001231193542480469e+00 -1.987947523593902588e-01 7.578210234642028809e-01 -1.295066326856613159e-01 6.394804716110229492e-01
1.175162076950073242e+00 -1.293097782135009766e+01 -2.313148021697998047e+00 -2.581084668636322021e-01 4.039700329303741455e-02 9.652709960937500000e-01
-1.367843866348266602e+00 -1.129632663726806641e+01 -2.450360298156738281e+00 -5.093144625425338745e-02 -3.986577317118644714e-02 9.979061484336853027e-01
6.916997909545898438e+00 -3.894867897033691406e+00 4.454442024230957031e+00 -6.622972339391708374e-02 -4.800527170300483704e-02 -9.966489672660827637e-01
8.138133049011230469e+00 2.196529388427734375e+01 1.070740699768066406e+00 -1.074750535190105438e-02 -4.924072325229644775e-02 9.987291097640991211e-01
7.739921569824218750e+00 8.387604713439941406e+00 2.371960639953613281e+00 -7.029438018798828125e-01 -4.413431286811828613e-01 -5.577510595321655273e-01
9.932968139648437500e+00 1.561104011535644531e+01 5.425262451171875000e+00 -8.729006052017211914e-01 4.568061530590057373e-01 1.713845729827880859e-01
7.276848793029785156e+00 7.379867076873779297e+00 5.737607479095458984e+00 -7.594493031501770020e-01 -5.321317911148071289e-01 -3.742626309394836426e-01
-2.175694555044174194e-01 1.811633110046386719e+01 6.374481916427612305e-01 9.436394274234771729e-02 -8.366500027477741241e-03 9.955025911331176758e-01
-1.066702938079833984e+01 -1.291936397552490234e+01 -5.054139494895935059e-01 9.280643463134765625e-01 -3.423112630844116211e-01 1.466955542564392090e-01
-1.115945935249328613e+00 1.099446392059326172e+01 -2.285624621435999870e-03 -1.889093369245529175e-01 -6.514585018157958984e-01 7.347891330718994141e-01
-5.703073501586914062e+00 1.182906913757324219e+01 -2.963195443153381348e-01 4.230871796607971191e-01 -6.484132409095764160e-01 6.328961253166198730e-01
5.962550640106201172e+00 -2.111503219604492188e+01 9.396542906761169434e-01 -8.311590552330017090e-01 -5.559781789779663086e-01 7.931189611554145813e-03
-1.346080875396728516e+01 -1.698644638061523438e+01 3.052656412124633789e+00 7.071344256401062012e-01 -5.739692449569702148e-01 -4.129409193992614746e-01
7.903644561767578125e+00 7.633686065673828125e+00 5.969117641448974609e+00 2.383144646883010864e-01 6.738026440143585205e-02 -9.688478112220764160e-01
2.252067327499389648e+00 2.046716308593750000e+01 1.179459095001220703e+00 -3.563688099384307861e-01 -9.243298768997192383e-01 1.364388763904571533e-01
-1.893189191818237305e+00 2.724464416503906250e+00 -1.251679778099060059e+00 -1.231698021292686462e-01 -5.118155479431152344e-01 8.502199649810791016e-01
-5.888608455657958984e+00 -1.169462966918945312e+01 -1.360764503479003906e+00 -8.855086565017700195e-02 6.128351762890815735e-02 9.941846132278442383e-01
2.855891466140747070e+00 2.162873458862304688e+01 9.068766832351684570e-01 -2.579067647457122803e-01 4.097234606742858887e-01 8.749918937683105469e-01
-1.596822619438171387e+00 1.551646041870117188e+01 5.098415613174438477e-01 -4.754599556326866150e-02 -1.113546490669250488e-01 9.926427006721496582e-01
1.047443199157714844e+01 1.853825378417968750e+01 5.153125762939453125e+00 -9.896416664123535156e-01 1.253607571125030518e-01 -6.995785236358642578e-02
3.985393524169921875e+00 -1.619078445434570312e+01 1.941219210624694824e+00 -9.355973601341247559e-01 -3.345358669757843018e-01 1.128861308097839355e-01
-1.075582218170166016e+01 -8.344595909118652344e+00 7.294505238533020020e-01 6.971313953399658203e-01 4.403191804885864258e-02 7.155900001525878906e-01
6.096918106079101562e+00 -6.601751327514648438e+00 4.178186416625976562e+00 4.455925896763801575e-02 1.933077536523342133e-02 -9.988197088241577148e-01
-1.296832847595214844e+01 -1.615379142761230469e+01 3.342262506484985352e+00 7.004278898239135742e-01 -3.486199080944061279e-01 -6.227880120277404785e-01
7.897659301757812500e+00 2.157142257690429688e+01 1.049104332923889160e+00 -1.797134988009929657e-02 -5.185412615537643433e-02 9.984929561614990234e-01
